-0.44231950100000006 -0.13727725089999998 -0.1334664083
-0.4421938837999999 -0.13796166139999988 -0.13301013750000001
-0.4419611270999999 -0.138709258 -0.1328391283
-0.4417605216 -0.13946134809999977 -0.1326891564
-0.4416377397 -0.1401682031 -0.1323066604
-0.44150110760000016 -0.14088214090000006 -0.1317779729
-0.4412240286000002 -0.14165852210000018 -0.1316571933
-0.4387869301 -0.14929049940000017 -0.13071441550000001
-0.43877546070000006 -0.14953764849999995 -0.1305953052
-0.4386795207999996 -0.14992868520000036 -0.130367155
-0.43850696560000024 -0.15046040580000009 -0.1302733776
-0.43833916969999986 -0.15108177589999983 -0.1301025689
-0.43821497370000007 -0.15168510019999992 -0.1297767872
-0.4380677250999998 -0.15228313810000005 -0.1293465382
-0.4371179392000002 -0.15516963949999996 -0.12834680119999997
-0.4370579871000002 -0.15546495599999988 -0.1283108227
-0.43699792270000026 -0.15587897429999975 -0.12805100149999998
-0.43690823609999985 -0.15633234909999993 -0.12761120310000001
-0.4367004549 -0.15689044530000018 -0.12741827279999998
-0.43652897999999984 -0.15750875119999996 -0.1271543503
-0.43639125739999995 -0.1581110507000001 -0.1267655886
-0.43625294010000015 -0.15868200539999977 -0.12627213920000002
-0.4360394838000001 -0.15931952100000002 -0.1259864483
-0.43561482389999995 -0.1607098651000003 -0.1251377139
-0.4354993775999998 -0.16130919730000004 -0.12455661309999999
-0.43543879650000017 -0.1616429355000002 -0.1242658386
-0.43524614890000013 -0.16212393250000012 -0.1241172546
-0.4349160945000001 -0.16312435480000032 -0.12364248489999999
-0.43484926979999994 -0.16354917270000024 -0.12330415310000001
-0.4347297282999998 -0.1640378761000001 -0.1228494333
-0.43437806469999973 -0.16499618539999972 -0.12229577290000002
-0.43416716779999964 -0.1657572868999999 -0.12170716570000001
-0.4341417176000002 -0.16611422499999984 -0.1213555446
-0.4340351616999998 -0.16653681789999997 -0.12087579809999999
-0.43383175670000007 -0.16707348100000008 -0.1205906376
-0.43344586919999983 -0.16827804420000003 -0.11970388139999999
-0.4334330541 -0.16857500499999967 -0.1193767208
-0.43332815889999976 -0.16896654249999976 -0.118920967
-0.4331432867 -0.16947152600000015 -0.1186102816
-0.43277822629999996 -0.17058309319999987 -0.1176783404
-0.43275663809999987 -0.1708544768000002 -0.11736026439999998
-0.43264530609999996 -0.1712432762999998 -0.1169439116
-0.43245220380000005 -0.1717340504 -0.11665251070000002
-0.4322128326999999 -0.17256908160000028 -0.115756714
-0.43219333309999985 -0.17289574939999985 -0.1152901042
-0.43209556429999996 -0.1732733246999998 -0.11472650379999999
-0.43188053969999984 -0.17375527779999977 -0.1144101151
-0.4315674446000002 -0.17474770309999998 -0.11333589740000001
-0.4315681672 -0.1750451265999997 -0.11241436680000001
-0.43160426109999994 -0.17509862469999993 -0.11161360709999998
-0.4315316759000001 -0.17526141599999967 -0.11135473700000001
-0.43145626409999993 -0.17555713760000025 -0.1109065765
-0.4314566326999998 -0.17576831709999974 -0.11033390680000002
-0.43140418229999966 -0.17605291130000023 -0.1095336108
-0.43127388190000016 -0.17632512759999974 -0.1092160039
-0.4311997742 -0.17664937030000027 -0.10874873189999999
-0.43121591940000004 -0.17686745670000015 -0.1083713373
-0.4310705173999998 -0.1773219694999999 -0.10746021530000001
-0.4309207359 -0.17770353809999984 -0.1069547973
-0.4308180786000002 -0.1780935604999998 -0.10632411359999999
-0.4308372988000002 -0.17829647930000014 -0.1058876076
-0.43074812939999996 -0.17858025030000002 -0.10535826539999998
-0.4305100569999998 -0.17911153000000013 -0.10462706579999999
-0.4304369832999999 -0.17940368389999994 -0.1042827594
-0.4303763932 -0.17972634370000007 -0.1037148393
-0.43027292289999997 -0.18007276659999993 -0.1030905454
-0.43009941640000005 -0.18046785109999997 -0.1026129895
-0.4300070272000003 -0.18087842159999967 -0.10197116669999999
-0.42992460470000005 -0.18124136369999988 -0.1012161584
-0.4298206293 -0.18157581309999982 -0.1004906012
-0.42964716879999987 -0.18193677249999984 -0.0999516583
-0.4295675550999998 -0.1823200535999998 -0.099278903
-0.4294779207000001 -0.1826761110999997 -0.098540557
-0.4293329558000001 -0.18297619679999988 -0.09789645629999999
-0.42923955020000015 -0.18328798619999986 -0.0972661249
-0.4291890289000002 -0.18363718849999966 -0.0964627887
-0.42911825859999997 -0.1839218467000001 -0.0956430465
-0.4289776737000004 -0.18417394100000006 -0.0944880095
-0.4289707825 -0.18424694919999984 -0.0940927355
-0.428962292 -0.18441425729999983 -0.09346993979999998
-0.4290497299 -0.18434566489999993 -0.0917976854
-0.42914990769999983 -0.1840746418000001 -0.09124718809999999
-0.4291683339000003 -0.18402422369999982 -0.0910671
-0.4291769501 -0.18413909029999997 -0.0905784104
-0.42916902310000005 -0.18424587209999999 -0.0899417046
-0.4291294926 -0.18428613230000002 -0.088853864
-0.4291374842 -0.18429074619999986 -0.08849042169999999
-0.42914086689999964 -0.18442534209999994 -0.08787709830000001
-0.4292666048 -0.18416658900000016 -0.08630542730000001
-0.4294155810000002 -0.18373863609999974 -0.0857585282
-0.4294490768000001 -0.18362569250000016 -0.08558350340000001
-0.4294846809999999 -0.1836783839999998 -0.0850797847
-0.4295269683999998 -0.18361833589999987 -0.08391889420000001
-0.42963173460000004 -0.18328741910000002 -0.08316524419999999
-0.42967675530000005 -0.1832006768000003 -0.0828878073
-0.4297020732000001 -0.18328333809999986 -0.0823063455
-0.42969860309999985 -0.1833454135000001 -0.0816269238
-0.42970029109999963 -0.1832119337 -0.080494785
-0.4297252736999999 -0.18314351829999964 -0.08012149860000001
-0.4297533189 -0.18319436029999991 -0.0794955911
-0.4298033996999999 -0.18305331329999985 -0.0782431812
-0.4298555461000002 -0.18288209199999983 -0.07781242199999999
-0.43021179860000025 -0.1819014213000001 -0.0765737846
-0.4307103914999999 -0.18077723459999984 -0.0756008061
-0.4309515947999998 -0.18017079749999976 -0.0751999441
-0.43141666749999974 -0.17891003339999978 -0.07465571879999999
-0.43174128570000025 -0.1780214203999999 -0.07424135130000001
-0.4318600438 -0.17780621380000028 -0.0736627074
-0.4319813183000001 -0.17752665619999997 -0.07295087239999999
-0.4320779477000003 -0.17718312940000036 -0.07239291549999999
-0.4320954174999998 -0.1770547937 -0.0718812225
-0.4321450108999998 -0.17698831110000013 -0.071063527
-0.43220151620000014 -0.1769171944000001 -0.070638215
-0.43218522859999986 -0.1768329757 -0.0701796943
-0.4321375217000001 -0.17690452399999979 -0.0697017064
-0.43208902520000025 -0.1770161187000001 -0.06845040479999999
-0.43214579099999995 -0.17695133530000007 -0.06789547280000001
-0.43212575310000023 -0.1768667275000002 -0.06734439049999999
-0.43207302830000005 -0.17691085169999976 -0.0668123843
-0.4320438742000001 -0.17705772280000032 -0.0660817212
-0.43201847240000024 -0.17708764720000003 -0.0653120971
-0.43199427460000006 -0.17698136500000006 -0.0646369805
-0.43195921989999997 -0.17698231879999993 -0.0640354062
-0.43196268679999994 -0.17702371019999985 -0.0632809365
-0.43197511759999996 -0.17694541909999995 -0.062499239899999996
-0.4319826454000002 -0.17676445780000005 -0.0618390595
-0.43198067520000016 -0.17669949750000002 -0.061223777699999996
-0.43200451029999964 -0.17664732849999965 -0.06046783690000001
-0.4320451421000002 -0.17650789750000007 -0.0596958004
-0.4320720065999999 -0.17626371920000006 -0.0590507083
-0.4320872495999999 -0.17611974880000014 -0.0584417853
-0.4321331663999999 -0.17602235880000006 -0.0576945955
-0.43219268070000005 -0.17582713839999986 -0.0569352074
-0.4322415868 -0.17550085189999987 -0.0563126909
-0.4322797854 -0.17529363509999962 -0.0557297531
-0.43234959080000035 -0.1751211092 -0.0550138618
-0.4324358716000001 -0.1748401720999997 -0.0542791372
-0.4325048723 -0.17446060779999994 -0.0536894957
-0.4325620336 -0.1742062687999999 -0.053122709399999996
-0.43264895049999996 -0.1739803191 -0.052417306899999995
-0.43275333819999995 -0.17367002809999965 -0.051688069
-0.43283820269999973 -0.17322974710000016 -0.0511255537
-0.4329350162000001 -0.17290192859999998 -0.0505500883
-0.43303191279999975 -0.17257540729999965 -0.0499197241
-0.4331643359999999 -0.17210511080000002 -0.0493492856
-0.43327226949999975 -0.1717054092999999 -0.0487984359
-0.43335371909999987 -0.17142668120000026 -0.048177014899999995
-0.43347141460000005 -0.1710396620000001 -0.0475406907
-0.4335864626000001 -0.17060466389999984 -0.046954732799999996
-0.4336348890999999 -0.17029108630000023 -0.0464134003
-0.43373115559999986 -0.16997373910000002 -0.0458041235
-0.43385732870000027 -0.16954479960000013 -0.0451873685
-0.4339784523000003 -0.16907363659999985 -0.044665874300000005
-0.4340797207999998 -0.16866302619999995 -0.0441476836
-0.4341845374000002 -0.1683749029999997 -0.0435213615
-0.4344532957 -0.16738727340000015 -0.0424754356
-0.43460887039999996 -0.16686812130000028 -0.0421428043
-0.4348386610000001 -0.16601392960000005 -0.0414622313
-0.43498631099999985 -0.1656256398 -0.041090486499999995
-0.4353127465000002 -0.16455292540000022 -0.0403713131
-0.4356518234000002 -0.1634600786 -0.0399869303
-0.43588758630000024 -0.16264054569999997 -0.039621489
-0.4360020685000001 -0.16235818550000003 -0.0393152175
-0.43623627759999994 -0.16155702780000025 -0.038590857299999996
-0.43665305789999964 -0.1601847998000001 -0.038136135599999996
-0.43674416160000007 -0.15986020970000014 -0.0379790273
-0.4368749490999999 -0.1593619948999998 -0.0373754179
-0.438802398 -0.15370788410000014 -0.0376073236
-0.4387655629 -0.1537475959000001 -0.0375034797
-0.4386476127000001 -0.15394316470000025 -0.037213297299999996
-0.43854484790000026 -0.15424314449999965 -0.0367427786
-0.4385134987999999 -0.15431994930000004 -0.0361914131
-0.43843058459999984 -0.1543261078999998 -0.0357092185
-0.4383567472000003 -0.1543830716000003 -0.0352205055
-0.43832515390000015 -0.1544680826999998 -0.0346291018
-0.43828866469999994 -0.15425637440000006 -0.0337107388
-0.4383222258999999 -0.1538873393000002 -0.0332234377
-0.43834771790000016 -0.1536579966999998 -0.0327516889
-0.43839667660000003 -0.15361709359999987 -0.0323433825
-0.43840387839999995 -0.15340290540000012 -0.0319384536
-0.4384845448000001 -0.15289306300000005 -0.0314005269
-0.4385356642999998 -0.15261840209999988 -0.0307976763
-0.4385968563999998 -0.15244559440000005 -0.0304624481
-0.4386667579000001 -0.15206385290000002 -0.0301764615
-0.43880889919999966 -0.15141496619999995 -0.0297740377
-0.43884515960000003 -0.1512748558000001 -0.0294723071
-0.43887438160000025 -0.15114664210000006 -0.029052384
-0.43893900220000015 -0.15078701839999997 -0.0287062254
-0.4390860258 -0.15008983440000012 -0.028276043100000002
-0.43922283429999975 -0.14948567450000017 -0.0276008149
-0.4396743048 -0.14795145980000024 -0.0269388151
-0.4401792698999998 -0.14633142549999967 -0.0271275365
-0.4402074534000002 -0.14614792480000016 -0.0271191888
-0.4401625372 -0.14616960800000012 -0.0267257127
-0.4402066919000003 -0.14592052209999995 -0.0260564017
-0.44031415240000005 -0.14545447970000014 -0.025838517300000002
-0.4403425863999999 -0.1452587729000001 -0.0257500001
-0.44032970790000014 -0.14520985659999974 -0.025517871499999997
-0.44031894159999974 -0.14514829280000008 -0.0247919437
-0.44043589119999993 -0.1446037879000004 -0.024440705899999998
-0.4404873399999998 -0.14434365680000028 -0.0243056721
-0.4404925834000002 -0.14425697240000002 -0.0240320836
-0.4405184927999999 -0.14411252490000015 -0.0237077444
-0.44059356549999995 -0.1437139044000002 -0.0234930394
-0.4406622967999998 -0.1433690367999998 -0.0233327731
-0.4406886177999998 -0.14309953350000004 -0.0227794132
-0.44074524439999996 -0.14293106180000015 -0.0224742782
-0.4409452559 -0.14207722779999976 -0.022224094200000002
-0.4410142856000001 -0.14178110409999967 -0.022099768399999997
-0.4411140570999996 -0.14131223160000017 -0.0217429348
-0.4412275378000001 -0.14095908040000005 -0.0216030976
-0.4413685832999996 -0.14029041529999997 -0.0213769465
-0.4413885397999997 -0.14012811629999966 -0.021199585400000002
-0.4414216901999999 -0.1398626609 -0.0207676708
-0.44154953480000003 -0.13949893519999979 -0.0206028315
-0.4417192605000002 -0.1387367075000001 -0.0204327919
-0.4418198228999999 -0.13828208639999984 -0.0202466862
-0.4418976989000001 -0.1379377034 -0.0199389929
-0.4420547306000002 -0.1373688462999998 -0.0196953569
-0.4422103144 -0.13669665640000028 -0.019681040400000002
-0.44228580599999967 -0.1363152906999998 -0.0196266022
-0.4423067317 -0.13627302860000023 -0.0194329984
-0.44239062099999993 -0.13590104889999965 -0.0190630366
-0.44246847769999986 -0.13548987320000005 -0.0190182864
-0.4425761549999998 -0.13496750199999985 -0.0190917949
-0.4426235917999999 -0.1348458422000003 -0.0189403691
-0.44267593929999993 -0.13464263630000017 -0.018741640099999998
-0.4427321371999997 -0.1342961029999996 -0.0186353241
-0.4427615683999999 -0.1340331425000003 -0.0185758844
-0.4428070210999997 -0.1339129561000001 -0.0183650035
-0.4428785784000002 -0.13371326770000014 -0.0180806036
-0.44337171080000015 -0.13178662740000036 -0.0180951961
-0.44374160490000003 -0.13041797070000039 -0.0185461639
-0.44371458470000036 -0.1305326828000002 -0.0183412758
-0.4437240579999999 -0.1305410077000002 -0.0180699302
-0.44374065730000023 -0.13031157019999995 -0.017922118600000002
-0.44372892429999977 -0.13013533110000042 -0.0178835418
-0.4437599876 -0.1300814476000003 -0.017727738700000002
-0.4437924003 -0.1299470772000002 -0.0175363689
-0.44382741199999964 -0.12962680000000004 -0.0174945933
-0.44386799769999996 -0.12941350829999987 -0.0174551556
-0.4439068703000002 -0.12933829559999976 -0.0172379772
-0.44395231739999996 -0.1291887325000003 -0.0169925247
-0.4440069810999998 -0.1287541524 -0.016950430699999998
-0.4440584061999999 -0.12845117890000024 -0.0169681855
-0.4441307657000002 -0.12824639669999982 -0.0168775126
-0.4442324755000002 -0.12793658320000034 -0.0167660795
-0.44426706540000005 -0.1275965482000001 -0.0167176803
-0.44462844189999995 -0.1262003558 -0.016979479300000003
-0.4446800641000004 -0.12597582499999982 -0.0166661934
-0.4448894170000002 -0.1252612943 -0.0166616021
-0.4450413157999997 -0.1246415475 -0.0169754915
-0.4450306136000002 -0.12458567699999978 -0.0170832775
-0.4449685496 -0.12481476999999996 -0.0167037396
-0.4450897361999999 -0.12435990650000006 -0.0166185388
-0.4451918296999997 -0.12388347069999961 -0.016795897400000002
-0.44517541599999966 -0.12383966970000015 -0.0169047439
-0.4452003500999999 -0.1237861694000002 -0.0167623871
-0.4453347166000001 -0.12335418659999986 -0.0166709874
-0.44547017649999976 -0.12276293490000034 -0.0168929335
-0.4454453721 -0.1226838404999997 -0.0169463905
-0.44546552130000006 -0.12269730260000022 -0.0168110832
-0.4455861058999999 -0.12231587570000002 -0.0166978865
-0.4456245803000001 -0.1220120723 -0.0167529084
-0.4456096292999998 -0.12189419549999991 -0.0168421633
-0.4456480648000003 -0.12186962390000033 -0.016781688
-0.44575358899999973 -0.12164435100000004 -0.0166871786
-0.44578750330000005 -0.1212978867000003 -0.016726947199999998
-0.4458265129000001 -0.12110282170000009 -0.016788878400000002
-0.4458861916000001 -0.12102106559999992 -0.0167164552
-0.4459413434999999 -0.12079506839999965 -0.0166466117
-0.4459777597999999 -0.12039588510000021 -0.0167981593
-0.44603133569999986 -0.12015394109999988 -0.016986655
-0.4461115747000002 -0.12005157229999996 -0.016977435199999998
-0.44620316760000023 -0.11984215570000023 -0.0169037851
-0.4463431348000002 -0.11910716539999999 -0.0172415032
-0.4463614787000001 -0.11897904609999976 -0.017322380999999998
-0.4464097736000001 -0.1188623007999996 -0.017349653
-0.4464867245999997 -0.11858025209999967 -0.0174222901
-0.4465309833000002 -0.11834429769999977 -0.0175183956
-0.4465206762 -0.11835688010000034 -0.017530114700000002
-0.44654528309999986 -0.11831367800000026 -0.0174966667
-0.4466267331 -0.1180094506999998 -0.017552924
-0.44669802680000004 -0.11765379079999994 -0.017718119499999997
-0.44668559939999986 -0.11764917720000012 -0.017801182500000002
-0.4467557495000003 -0.11751963740000004 -0.0178294001
-0.4468142231000001 -0.11730144619999994 -0.017881597399999997
-0.44678548799999973 -0.11723882089999993 -0.017969872900000003
-0.4468625558000001 -0.11709761020000009 -0.0180307238
-0.4469676103000002 -0.11678887080000022 -0.018074888499999997
-0.4469967481000001 -0.11656017540000008 -0.0181944163
-0.4470084933999998 -0.1164729337999999 -0.018304877900000002
-0.4470699142000001 -0.11638769240000002 -0.0183412555
-0.4471268446000001 -0.11615461849999997 -0.018399794
-0.44716493380000033 -0.11595808919999984 -0.0185393537
-0.44722571099999975 -0.11581052099999978 -0.018634940300000003
-0.44727749260000005 -0.11565844780000001 -0.0187088768
-0.4473282518999997 -0.11544549969999984 -0.018811429399999996
-0.44739022120000005 -0.11522818969999982 -0.0189455904
-0.4474043979000002 -0.1151456405000002 -0.019035976
-0.44743900859999997 -0.11511046379999978 -0.019097859499999998
-0.44771420299999987 -0.11418242729999983 -0.019660333900000004
-0.44770745340000007 -0.11412483930000006 -0.0196742653
-0.4476627575000003 -0.11424481289999999 -0.019704335099999998
-0.44771469580000023 -0.1141773918000002 -0.0197334882
-0.44773319560000013 -0.1140771963999998 -0.0197846846
-0.4477471338000001 -0.1140284694 -0.0198781397
-0.4477559885 -0.11403506539999997 -0.0199339725
-0.4478036255000002 -0.11395680790000018 -0.019973594200000003
-0.4478590297 -0.11373010189999988 -0.020074288699999998
-0.44787401819999983 -0.11363384230000007 -0.020217516900000003
-0.4478735227999997 -0.11370060880000032 -0.020301301799999998
-0.4479316227000001 -0.11359829319999992 -0.0203827871
-0.4479880140000003 -0.11337883300000007 -0.020508435
-0.4480126711000003 -0.11331423770000004 -0.0208359804
-0.4480209112 -0.11334650199999974 -0.0208685734
-0.4480756734 -0.11323818689999987 -0.020925321000000004
-0.4481270841999998 -0.11300914510000037 -0.0210622335
-0.44815568940000006 -0.11294718529999992 -0.021198413400000005
-0.4481780980000001 -0.11296992709999998 -0.021261416900000003
-0.4482469496999997 -0.11279694820000019 -0.021368385900000002
-0.4482923163999999 -0.11259824060000012 -0.021506961100000006
-0.4482868561000002 -0.11262582050000036 -0.021638143799999995
-0.4482731815000003 -0.11278545660000017 -0.021680850300000006
-0.44832256310000007 -0.11270870330000005 -0.021766350400000002
-0.44841938510000023 -0.11241813210000018 -0.022209938499999998
-0.44829846679999985 -0.11293137139999976 -0.022229591
-0.4483074936000002 -0.11297292739999998 -0.0221687353
-0.44839420019999965 -0.11273067270000015 -0.0223250351
-0.44849070339999964 -0.1123263848999998 -0.0227622575
-0.44850386629999983 -0.11240602599999994 -0.022767771399999998
-0.4484978098000001 -0.11248340449999983 -0.022743077599999995
-0.4485125543999997 -0.11243291420000023 -0.0228257736
-0.44855885100000004 -0.11233418719999966 -0.023035655600000003
-0.4485574806999999 -0.11246572520000031 -0.023033515500000004
-0.4485631860999999 -0.11254149850000017 -0.023028167600000003
-0.4486718001000001 -0.11217366829999964 -0.023494623699999995
-0.4486872856999997 -0.11223403010000021 -0.023638790200000002
-0.4486552827999999 -0.11249440899999996 -0.0235574629
-0.4486149741000003 -0.1127181801999999 -0.023457257500000002
-0.44870719180000007 -0.11237991640000011 -0.023849127899999996
-0.4487237886000002 -0.11233973339999981 -0.024067156100000008
-0.4486996357999997 -0.1126359565999997 -0.023968010699999993
-0.44868688410000024 -0.11277029349999967 -0.023870641900000003
-0.44870714960000013 -0.1126999086999998 -0.024024481999999993
-0.4487075036000001 -0.11279316429999975 -0.024109877400000007
-0.44869568839999996 -0.11296619240000005 -0.024073002100000004
-0.4487124935 -0.11302440199999975 -0.024036964300000005
-0.4487933143 -0.11272716840000019 -0.0243947437
-0.4488057047999998 -0.1127227529999999 -0.02447733440000001
-0.44881460959999986 -0.11286748589999984 -0.024508661199999997
-0.4488342285 -0.11288080349999996 -0.0245355061
-0.44885329989999967 -0.11282376410000028 -0.0246841946
-0.44887226150000004 -0.11291681069999981 -0.024829300999999998
-0.4488873573000003 -0.11308883090000021 -0.024794255699999997
-0.44888186080000025 -0.11313276739999978 -0.024798622899999997
-0.44891184419999997 -0.11305495830000023 -0.02519842
-0.4487810581999998 -0.11367184659999996 -0.025209060499999998
-0.4488087760999999 -0.11378803800000004 -0.0251142477
-0.44883731179999975 -0.11371840749999995 -0.025157760699999997
-0.44884221859999984 -0.11356718529999998 -0.0253674813
-0.44891466520000023 -0.11361252900000007 -0.025535240799999998
-0.44894363270000026 -0.11377338820000027 -0.025495745400000006
-0.44893989729999983 -0.11382769409999982 -0.025503328399999997
-0.4489373927 -0.11374896159999981 -0.025659911800000004
-0.4489767872999999 -0.11382783110000005 -0.025720720000000002
-0.4490012643000001 -0.11402416179999975 -0.0256808729
-0.4489925493000002 -0.11408281860000002 -0.0256784553
-0.44898757200000006 -0.11402210719999983 -0.025889699500000002
-0.44902482200000016 -0.11410664739999987 -0.025981977500000003
-0.4490583441 -0.11434455169999991 -0.0259137195
-0.44903689180000006 -0.11445485909999986 -0.0258577911
-0.4490213275999997 -0.11441295600000023 -0.026044625399999993
-0.44905688450000003 -0.11449740250000007 -0.026126728899999993
-0.44909179870000004 -0.11471617280000013 -0.026080019999999995
-0.4490700954000002 -0.11483476190000008 -0.026035555399999993
-0.4490566693 -0.11480085120000005 -0.02622201839999999
-0.44909972060000003 -0.11491386299999995 -0.026268011300000005
-0.44912341330000016 -0.11515155729999993 -0.026195658900000002
-0.44909153580000005 -0.11525105410000025 -0.026164694200000005
-0.4490841823 -0.11523666770000007 -0.026327224300000007
-0.4491250978000001 -0.1153703586999999 -0.026339437300000004
-0.44914652109999986 -0.11562942059999992 -0.026242239599999995
-0.44911495739999996 -0.11576154930000015 -0.026183910399999996
-0.4491001100000003 -0.11574231700000004 -0.026359570900000004
-0.4491429773000002 -0.11587008219999984 -0.026384133599999998
-0.4491720913999999 -0.11615183330000001 -0.02625686079999999
-0.4491287115000002 -0.11631818289999973 -0.026146404299999995
-0.44911140809999983 -0.11632408439999997 -0.02628392959999999
-0.44914689679999986 -0.11643716579999985 -0.02629470369999999
-0.4491734401999996 -0.1166768534 -0.026199358499999992
-0.4491374762000002 -0.11681667329999978 -0.02612297670000001
-0.4491306271000002 -0.11683435489999994 -0.026244805799999993
-0.44917138040000015 -0.1169660480000001 -0.026226604599999995
-0.44920185199999985 -0.11729885720000022 -0.0260154591
-0.4491401155000001 -0.11750189990000015 -0.025830173400000003
-0.4491298401999999 -0.11756485230000013 -0.025842276600000005
-0.4491330147000001 -0.11780532459999993 -0.025593408900000003
-0.4491541861999999 -0.117928649 -0.025530812900000005
-0.44913628900000013 -0.11798094089999989 -0.0255332843
-0.44915199649999993 -0.1179372044 -0.025718523499999993
-0.44919488770000005 -0.1181639254000002 -0.025578003000000002
-0.44922404449999975 -0.11840603949999995 -0.0254172468
-0.4491661102000002 -0.11863104059999996 -0.0251704834
-0.44917122759999994 -0.11859923899999991 -0.0252643528
-0.44932225159999994 -0.1182755660999999 -0.024757480900000003
-0.44936687110000006 -0.11846141339999994 -0.024701263900000006
-0.4493301273000001 -0.11859584110000032 -0.0246550346
-0.44933583359999973 -0.11863460339999987 -0.0247832588
-0.4493044636999999 -0.11902156460000013 -0.024312553200000003
-0.4493474888 -0.11920943340000001 -0.024219697400000004
-0.4493096079000001 -0.11933972299999995 -0.024140800199999993
-0.4493118688000002 -0.11935995990000015 -0.0242428316
-0.44935882289999984 -0.11955965130000035 -0.0241445406
-0.4493646001999996 -0.1199223492999999 -0.023875228100000007
-0.4494481350999999 -0.11946116870000001 -0.023014936099999994
-0.44946152920000015 -0.11937019219999989 -0.023268286599999993
-0.44946696630000016 -0.11968763620000011 -0.023057703799999996
-0.44950549419999986 -0.11988340259999974 -0.022982984600000006
-0.4494160963999998 -0.1202673920999997 -0.022502810900000003
-0.44943529169999996 -0.1202314619 -0.022608705399999998
-0.4494836587000002 -0.12041479170000002 -0.022527392800000004
-0.44939110400000004 -0.12092966430000018 -0.021667827399999992
-0.4494145259 -0.12095945250000018 -0.0216545888
-0.4494261258000001 -0.12090563750000038 -0.021761777300000007
-0.4494850930000003 -0.12111879800000036 -0.0216452773
-0.4493806037999999 -0.12177614380000001 -0.020644491099999995
-0.4493607963999997 -0.12179288440000002 -0.020581269
-0.44939399979999983 -0.12178024270000032 -0.020615918400000002
-0.4494614512999999 -0.12200392250000025 -0.020384466399999995
-0.4494516515 -0.12235838500000007 -0.019985619299999993
-0.44938435279999966 -0.1225329519999998 -0.019693243200000002
-0.4493841763999997 -0.12257794799999999 -0.0196154449
-0.44943164709999994 -0.12281901369999959 -0.019301490199999993
-0.4494208089999998 -0.12320184209999985 -0.018805206000000005
-0.44934668460000005 -0.1233790899999998 -0.018430328100000004
-0.4493555475000002 -0.12350650620000003 -0.0181624207
-0.4493673264 -0.1237163524999998 -0.017766592499999997
-0.4493567296000003 -0.12397543209999995 -0.017327634499999994
-0.44933648130000003 -0.12412536999999979 -0.016932101200000008
-0.45000281080000004 -0.12161133099999999 -0.015643374300000013
-0.45005127889999974 -0.12183289400000019 -0.015517568600000003
-0.4500258040999996 -0.12224115619999987 -0.015164292699999998
-0.4499467829000001 -0.1225068413999999 -0.014892447099999997
-0.44993422569999986 -0.12267501369999989 -0.014757138399999994
-0.4499372675000002 -0.12304014490000004 -0.01436315190000001
-0.4498911001999999 -0.12348427909999993 -0.013806828399999999
-0.44980839280000007 -0.12371021439999996 -0.0133938522
-0.4498036848 -0.12383719199999987 -0.013144351499999998
-0.4498288656999998 -0.12416637440000011 -0.012630790699999991
-0.44979291749999994 -0.12459614939999986 -0.011926607200000008
-0.4497068515999998 -0.12477040270000028 -0.011389313900000003
-0.4497122447999997 -0.12486955239999986 -0.011003891400000007
-0.44973814930000033 -0.1250782964999999 -0.010446206099999994
-0.44972548030000015 -0.1253638560999999 -0.00976961979999999
-0.44969080780000015 -0.12548634830000038 -0.009174496200000007
-0.44970797549999997 -0.12553031159999994 -0.00871739149999999
-0.44970595369999966 -0.1256698056000003 -0.007446659999999994
-0.44976750799999987 -0.12585075190000028 -0.006758356300000004
-0.4497419456 -0.12580823419999998 -0.006212930000000005
-0.4497994404000001 -0.12573998579999968 -0.0058049550000000005
-0.44982368500000014 -0.12589136840000004 -0.0043500892999999985
-0.44988261790000017 -0.12587862539999994 -0.003778428399999992
-0.4499064884999999 -0.12560903040000015 -0.003457616899999988
-0.45007654289999977 -0.12514907310000023 -0.0028982599000000053
-0.4501649458000001 -0.12521728089999984 -0.001572686700000006
-0.4502150443999997 -0.1251119183 -0.001101898599999998
-0.45027403909999997 -0.12498061379999958 -0.0006633051000000112
-0.45032195769999994 -0.12500287119999998 0.0007301924999999904
-0.45039325250000006 -0.12489003489999995 0.0012688141000000014
-0.4504524132000003 -0.12470711859999994 0.0016810707000000091
-0.4505650493000002 -0.1244246927999999 0.002746894099999994
-0.4506729763999999 -0.12438755800000001 0.0033421454999999906
-0.4507286323999997 -0.12430234060000034 0.004011560100000006
-0.45077085210000023 -0.12417172929999998 0.0045951965000000095
-0.4508472216000001 -0.12409943890000008 0.005250027300000001
-0.4509159146999999 -0.12414070840000013 0.0061098924999999984
-0.4509373524 -0.12409137270000015 0.006999381400000004
-0.4509748520000003 -0.12391786530000015 0.007698752300000007
-0.4510536514000001 -0.12374572429999997 0.008393891199999996
-0.45114248889999997 -0.12350278300000017 0.0102487806
-0.45124774079999996 -0.12329009479999975 0.01107685869999999
-0.4513208496000001 -0.12295943010000032 0.011733898000000006
-0.45151180300000027 -0.12225791720000023 0.013076904200000003
-0.45170631520000004 -0.12166442480000006 0.0145972844
-0.45184901460000004 -0.1213630135999999 0.0153433678
-0.45204631790000027 -0.12045519009999994 0.0164721596
-0.4524218269999998 -0.11899183650000023 0.017801688800000007
-0.45265243359999996 -0.11833209309999981 0.018997618799999998
-0.4528433122000002 -0.11767980569999992 0.020355385900000002
-0.45307639889999995 -0.11671106909999995 0.0211366016
-0.45343799250000005 -0.11532729089999982 0.022230154100000003
-0.45487754319999985 -0.10935557650000005 0.025219717599999997
-0.4549920577000002 -0.1091624700999998 0.026075139800000008
-0.4550930687000001 -0.1088464977000001 0.026407928400000003
-0.4551910442000002 -0.10857781180000003 0.026897931800000004
-0.4552296657999997 -0.10845063690000023 0.028560673800000005
-0.4553069393000002 -0.1082226084000002 0.029826936899999996
-0.45542943680000025 -0.10763651740000002 0.030660384699999994
-0.4557434949000001 -0.10618231320000016 0.0318652153
-0.45592295809999994 -0.10548517749999986 0.0334898146
-0.45607700640000015 -0.10487868139999978 0.034591893000000005
-0.4563147007999997 -0.10369849389999963 0.036000134700000005
-0.45664706180000003 -0.10202493329999962 0.0377166964
-0.45685414069999997 -0.10127847989999994 0.0387063837
-0.4570587871999998 -0.10044340389999995 0.039835941599999994
-0.4572584727 -0.09951488180000023 0.0408563004
-0.45752090639999965 -0.09807920680000004 0.042576915199999996
-0.45778688720000016 -0.09664896299999981 0.044597363599999995
-0.45796208829999996 -0.09612403980000028 0.0452220847
-0.45817175369999985 -0.09485378759999996 0.046306666899999994
-0.4584288397999998 -0.09359181849999976 0.04744328579999999
-0.4586372608000002 -0.0925019386999999 0.0491349621
-0.45881394990000013 -0.09188850810000027 0.05002511720000001
-0.4589328213999999 -0.09111581599999985 0.0507631518
-0.4591239355000001 -0.09036792049999987 0.0515541672
-0.45930666160000033 -0.08973200560000016 0.0526892954
-0.45942133110000016 -0.08899352490000023 0.0540252127
-0.4595293437999999 -0.08805898959999992 0.055151520999999995
-0.45971368849999994 -0.08709628670000003 0.0562697645
-0.45990421270000015 -0.08618251359999984 0.057642235099999994
-0.4600463796999996 -0.0851448162999997 0.0591651154
-0.46032140729999993 -0.08254285280000007 0.0614662849
-0.46071473009999986 -0.07977788800000019 0.063373509
-0.4610941619000002 -0.07709099270000008 0.06555607229999999
-0.4614785320000001 -0.07422123370000033 0.06768323279999999
-0.46190192629999993 -0.07109091560000014 0.0691301076
-0.4623177692999998 -0.06812535819999965 0.0707397472
-0.46268302550000007 -0.06518954780000019 0.0725075136
-0.4630639189000001 -0.06210697250000008 0.0740549784
-0.4634138138999999 -0.05908300709999992 0.07560552999999999
-0.46371145069999997 -0.05613061360000016 0.0774145361
-0.46400409769999973 -0.05307744630000011 0.07921569269999999
-0.4642078289999998 -0.05150501289999987 0.0800825409
-0.464445456 -0.04828248309999994 0.0817381082
-0.4648543452999996 -0.0418568161999997 0.0848882458
-0.46516565649999997 -0.037127870900000026 0.0870767257
-0.46533939879999986 -0.035541520000000215 0.0877909015
-0.4654559196000001 -0.033920057 0.0885102646
-0.46558831170000037 -0.030703440199999932 0.0902579195
-0.46570687459999993 -0.02738003330000005 0.0920675648
-0.46583305669999975 -0.02563957189999977 0.0929733812
-0.4658967491000001 -0.023853632799999858 0.0938570296
-0.46599879820000023 -0.022060585499999785 0.09485431979999999
-0.4659775253999996 -0.01826906409999962 0.0970352861
-0.4660519112000001 -0.016279257799999947 0.0980569701
-0.4660851349999997 -0.014231438799999996 0.0990545681
-0.46612048109999993 -0.012170681100000191 0.1001412485
-0.46600266999999995 -0.007831304400000239 0.1023783814
-0.4660342527000001 -0.0055635991000002605 0.10342778059999999
-0.4660201626 -0.003252200500000413 0.1044081251
-0.46601426700000026 -0.0009423946000000072 0.1054096102
-0.46569479829999993 0.006234645100000158 0.1082894937
-0.46118765009999985 0.05744578069999973 0.1206647929
-0.4612245990999999 0.05782281580000026 0.1208249729
-0.4612373405999999 0.0582937539999997 0.1210708408
-0.46070669649999996 0.061499347099999824 0.12234377390000001
-0.4606960010000001 0.062208261699999934 0.1226254792
-0.4606317237999997 0.06298279239999971 0.12295474049999999
-0.46054653420000013 0.06384120309999997 0.1233092793
-0.4598393753000001 0.06782383149999971 0.1246940341
-0.45976129880000016 0.0688719943999998 0.125072162
-0.4596281040000001 0.06997000319999991 0.12547744970000002
-0.45948776069999964 0.07112414910000009 0.1258241844
-0.45932540479999995 0.07238092399999996 0.126174696
-0.45914360200000015 0.0737204409000003 0.12663955159999998
-0.45893247029999973 0.07512426569999997 0.1270942331
-0.45871904730000024 0.07659488070000009 0.1274880534
-0.45789711440000014 0.08121807629999989 0.1283546274
-0.45769384839999994 0.08273115390000019 0.1287236662
-0.4574573623 0.08427018310000012 0.1290577507
-0.4568852422999998 0.0874308976 0.1295571177
-0.45665234020000023 0.08902736830000002 0.1297801369
-0.4563882506999999 0.09062656419999993 0.1302477403
-0.4561027924000003 0.09225195620000015 0.1305426103
-0.45513300290000025 0.09715178839999972 0.13100207
-0.45487948040000026 0.09872356079999989 0.1311892655
-0.4542441651 0.10182485909999972 0.1316540799
-0.45332613970000013 0.10629381069999999 0.1318489331
-0.45308621539999994 0.10772939390000014 0.131964938
-0.45281586559999987 0.10916423289999999 0.1321528362
-0.45218429120000003 0.1120160390999998 0.1324699748
-0.45128848889999995 0.11610978039999997 0.1324279049
-0.4507542394999997 0.11867417440000017 0.13240249329999998
-0.45052510339999996 0.11993382830000021 0.1325223873
-0.4502689566 0.12116819010000013 0.1327117882
-0.4490969897000001 0.12597784439999993 0.1326110449
-0.4486419037 0.12821950390000003 0.1322095813
-0.44844960070000006 0.12930886650000017 0.1321804809
-0.4459257592000001 0.13848752009999998 0.1325091294
-0.44517673199999974 0.14152043009999993 0.1320396816
-0.44509719179999996 0.1421123164 0.1317135322
-0.4445816026 0.14442379579999987 0.1313765113
-0.4440737292999999 0.14643219769999982 0.13116436979999999
-0.4438832093 0.14742767220000008 0.1307957482
-0.44370641760000007 0.14847742679999998 0.13034874489999998
-0.44339751809999983 0.1499890733 0.1298971243
-0.4432102428999998 0.15094824439999988 0.1295961116
-0.4431452805 0.15147061689999974 0.1292034766
-0.4429962783999999 0.15259111979999984 0.1284622104
-0.4428131424999999 0.15365048439999995 0.1280770256
-0.4426088630999998 0.15468532439999993 0.1277246286
-0.44254130449999973 0.1552182029 0.1271829807
-0.44249594819999993 0.1558237946000003 0.1266560984
-0.44218809819999993 0.15753622350000018 0.1259078898
-0.4421096392999999 0.15806571300000005 0.12570186960000002
-0.4420272781999999 0.1586316347000003 0.12506998149999998
-0.4419744900000002 0.15925456939999982 0.12453628920000001
-0.44177652420000024 0.16049144900000023 0.1238656839
-0.4415610782999999 0.16164107389999982 0.1232278758
-0.44148368420000006 0.16221738849999978 0.1224649009
-0.44144428280000003 0.16284342699999987 0.1218396251
-0.44137981989999986 0.16347931969999996 0.1213015542
-0.4413046769000002 0.16413151840000006 0.1206969634
-0.44122856629999996 0.1648090305000003 0.1199385128
-0.4411669439999999 0.16548941540000017 0.1192399957
-0.43896304799999974 0.17359790379999973 0.116198948
-0.43892750739999986 0.17390114319999972 0.1158038836
-0.4389506364 0.17432872020000012 0.1147747419
-0.4389647282000002 0.17456175870000035 0.1144198412
-0.43895136190000006 0.17484519199999982 0.11408924329999999
-0.43889517909999975 0.1755462768 0.1130101863
-0.4388858366999999 0.1759038705 0.1122796225
-0.43888710229999983 0.17629877840000008 0.1116992058
-0.4388367404000002 0.17674002430000035 0.11124327799999999
-0.4387164519000004 0.17770953740000017 0.1098959853
-0.4385726942999999 0.17941022930000017 0.1073297366
-0.4383241685999999 0.18073335119999978 0.10613697030000001
-0.4381372861999999 0.18140608700000005 0.10579640530000001
-0.43798604669999985 0.18214779329999997 0.1048709756
-0.4378474053999999 0.18327062629999968 0.1031404796
-0.43764235990000033 0.18430070880000038 0.1021487652
-0.4375382655000002 0.18466745260000028 0.10194565759999999
-0.43742587199999994 0.185095762 0.1013769307
-0.43724349910000004 0.18648812309999974 0.099116959
-0.43706490050000024 0.18736140680000002 0.0982154173
-0.4368441620000003 0.18828311889999982 0.0972610693
-0.4366557324999998 0.1892267744999998 0.0958383953
-0.4363788491 0.19061105769999998 0.0941035862
-0.4342349137000001 0.1965070578999999 0.0920551233
-0.43418096140000006 0.1966263747000001 0.0918543561
-0.43413758069999986 0.19681591860000003 0.09112772050000001
-0.4341311643000001 0.19707626450000015 0.09025370529999999
-0.4339779347000001 0.1981184829 0.088571474
-0.4337143738 0.19922244089999985 0.0870701899
-0.43350183699999967 0.20029207650000025 0.08507920029999999
-0.4332894784999999 0.20129588499999995 0.0834253559
-0.4329369812999997 0.2023643196 0.08265791189999999
-0.43253166349999983 0.20353641769999964 0.0815601135
-0.43213408499999995 0.20502817659999995 0.07922412379999999
-0.43186716029999994 0.20600790130000002 0.07771964309999999
-0.4316015433000002 0.20672988679999982 0.07729299140000001
-0.4313047524 0.20753369929999987 0.0763146764
-0.43090704309999994 0.20881689819999982 0.07445526149999998
-0.43077737949999984 0.20921460309999995 0.07393130280000001
-0.4304451553999997 0.2101819468999997 0.0726844331
-0.4302428482999998 0.2106652552999999 0.0718409413
-0.4300823588 0.21118900510000005 0.0708126681
-0.4299250698999999 0.21175024390000008 0.0698018235
-0.42970655309999994 0.21239587770000012 0.06889195520000001
-0.42919705620000004 0.21386002630000034 0.0668003927
-0.4289365076 0.21453388060000034 0.06560907919999999
-0.42872498999999964 0.21521914409999976 0.06442967309999999
-0.4284657053000003 0.21597357540000006 0.0635064446
-0.42811719670000015 0.21676851829999988 0.0624129051
-0.42781043369999994 0.21754996350000022 0.0610117505
-0.42753891580000003 0.2183442941 0.059625104600000006
-0.42721822750000005 0.21922613979999994 0.058550488100000006
-0.4268297831000001 0.22009566950000004 0.0572892136
-0.4262521625 0.22172711430000014 0.054149057299999984
-0.4259506253999996 0.2225164668999997 0.05296852279999999
-0.42560272349999995 0.2233365099000002 0.05194459190000002
-0.42494858570000016 0.2249062972 0.04935611270000001
-0.42461729580000007 0.2256460979999999 0.0483130244
-0.4242864463 0.22642049019999977 0.04744883650000001
-0.4239025048 0.22716803510000005 0.0465189875
-0.42267415789999996 0.22996566220000014 0.0427089048
-0.42188006079999996 0.23162040710000031 0.04098131519999999
-0.4216348657000002 0.23210937639999996 0.040757439100000015
-0.42047888659999977 0.23431937430000005 0.0387315795
-0.41857766959999987 0.2379258622 0.0358613175
-0.41848590139999997 0.23805577720000004 0.035759782899999995
-0.41831095880000024 0.23834342610000014 0.03497760729999999
-0.41816230349999994 0.2385884626000001 0.03343272550000001
-0.4180012245999998 0.2389417172999999 0.031836328299999994
-0.4178555399999997 0.23923772799999998 0.03141996000000001
-0.41767726230000024 0.23952283659999996 0.03102414969999999
-0.4174836424999997 0.23976690119999988 0.029727880600000006
-0.41738665379999995 0.23989494600000016 0.02910025640000001
-0.41720278600000027 0.2402726169 0.0279328702
-0.4170761317 0.2404088152999999 0.0272912914
-0.41684888750000004 0.24082691989999994 0.025614522200000003
-0.41672298490000026 0.24100619499999976 0.02486273759999999
-0.41662782850000024 0.24121302259999977 0.024298116500000008
-0.41649154060000004 0.24138746909999975 0.023740286600000007
-0.41631890149999995 0.24154502910000009 0.022903309900000002
-0.4160998951999999 0.2419731781000003 0.02114881730000001
-0.41600563349999975 0.24216586899999992 0.02066307919999999
-0.4158541755999998 0.24231229629999973 0.020095557799999997
-0.4156292114000002 0.24266892579999988 0.018634077199999988
-0.41550951020000015 0.24279221439999965 0.0179653783
-0.4154221131 0.24291737850000006 0.017380480899999995
-0.41532165779999985 0.24303094609999976 0.016851951000000004
-0.4151251 0.24329550330000016 0.015560107499999976
-0.41502900050000013 0.24336201400000013 0.014955070300000012
-0.4148783792999997 0.24365556030000013 0.013789835400000006
-0.41480066949999994 0.24366890629999993 0.013481894699999997
-0.41466582380000006 0.24378938700000008 0.012258968599999975
-0.4145238935000002 0.24398007929999999 0.010572042199999993
-0.41448859039999997 0.24401076170000024 0.010275910500000013
-0.4144393426999997 0.24400556090000025 0.009981175499999995
-0.4143922869000001 0.24395371180000014 0.009355019800000003
-0.4144276363000001 0.2438237298999999 0.008314515999999994
-0.4144303196000001 0.24376002890000015 0.00801278179999998
-0.4143971362000003 0.24372199979999998 0.00793003610000001
-0.4143443994 0.24362777700000038 0.007627091500000016
-0.4144791784999997 0.2433559008999997 0.005967535400000001
-0.41448515389999985 0.24328192280000005 0.005896119000000005
-0.41448321529999976 0.2431754279999998 0.005564505800000008
-0.4145495503000003 0.24292559670000013 0.004405560000000003
-0.41459747219999965 0.24276823990000018 0.004120999900000005
-0.4146147153000004 0.24268836370000013 0.0041668961000000115
-0.4146241543999998 0.24252062799999985 0.0036024986000000037
-0.4147169344999999 0.24222816990000018 0.0027335950000000053
-0.41500129080000026 0.24169093190000002 0.0022735525999999784
-0.4150440401000002 0.24155022159999984 0.0025073795000000176
-0.41505871260000005 0.24138073650000003 0.0023011878000000208
-0.41521116299999994 0.24098622489999988 0.0008269122000000018
-0.41535484050000004 0.24065958290000022 0.0011012847000000103
-0.4154322290000003 0.24043286430000022 0.001182882800000007
-0.41547783240000014 0.24016104970000018 0.0006352060999999798
-0.41576598170000034 0.23960071879999978 -9.594809999999288e-05
-0.41581490750000016 0.2394970115999997 0.00019506729999999028
-0.4158269621999997 0.2393285462999999 0.0004081687999999972
-0.4158360993999999 0.23904421549999988 0.0001692366999999917
-0.41594618620000023 0.23880499560000024 -3.1367000000004364e-05
-0.4160412720000002 0.23855613929999997 -0.0001460177000000007
-0.41608792009999984 0.23826568780000024 -0.00046620120000001597
-0.4162111363000003 0.23798039490000011 -0.0007421753000000086
-0.41645331490000004 0.23753110239999975 -0.0008124422000000131
-0.4165471361999997 0.23723051139999995 -0.000798868799999991
-0.4166173394999997 0.23688124259999999 -0.0010625202
-0.4167587134999997 0.2365448981 -0.0013520368000000116
-0.4169326401000002 0.2362325688000002 -0.001334537400000002
-0.4170406473999999 0.23585383230000012 -0.0013943257000000042
-0.4171814990999998 0.23546577710000038 -0.0015524462999999822
-0.4183187399000001 0.23349024510000005 -0.001689591500000004
-0.4183186556999998 0.2333352649 -0.0016138703000000143
-0.4183041288 0.2331359205000001 -0.0018200596999999874
-0.41835550649999975 0.23293326810000003 -0.002024135199999999
-0.4184872318999999 0.23268028990000023 -0.001951719099999999
-0.4185610704 0.23236510740000016 -0.0019315104000000027
-0.41866523099999986 0.2320252946000001 -0.0020192485999999954
-0.41881573670000005 0.23168186160000026 -0.002005194099999996
-0.4189737578999999 0.23127366459999976 -0.0019400804999999965
-0.41909294789999985 0.2308637751 -0.0020245022
-0.4192506293 0.23047875200000023 -0.002120490200000019
-0.41958414889999984 0.22978258449999966 -0.002231201799999999
-0.4197517653 0.2293667962999999 -0.002126635299999985
-0.4201729178 0.22849675680000026 -0.002256387700000001
-0.42034439280000013 0.2280436686999998 -0.0022967734000000073
-0.42045167070000034 0.2277319149000001 -0.002156923599999999
-0.4208099407999999 0.22695212200000014 -0.0019535216000000077
-0.42160304500000034 0.22543378969999983 -0.0019695429000000098
-0.42159664229999994 0.22527286759999976 -0.0018389157999999795
-0.4216804462999999 0.2249773412999998 -0.0016963348000000045
-0.42179237989999985 0.2246485840000001 -0.0015618944000000134
-0.42186732030000007 0.22435424579999985 -0.001465093400000006
-0.42194470000000006 0.22404577869999986 -0.00144603900000001
-0.4220977208000001 0.2236224899999999 -0.0013404693999999884
-0.42229338210000034 0.22316729180000028 -0.0011910796000000057
-0.4224344764000003 0.22277502250000003 -0.0010379100999999835
-0.4225642973000001 0.2223552569999998 -0.0009354490999999854
-0.4227644519 0.2218385889000003 -0.0008008877000000025
-0.4230147126999997 0.22127331760000013 -0.0006045102999999996
-0.4233607465999998 0.22051307640000006 -0.00044306769999999385
-0.42364871520000014 0.2198199140999999 -0.00036132510000000395
-0.42380158460000006 0.21938276639999987 -0.0001810748999999945
-0.42399192190000035 0.21891697749999972 5.112089999997904e-05
-0.4243014694 0.21818190540000026 0.00024535580000001334
-0.4245724404 0.21749215489999996 0.00030342040000000403
-0.424724946 0.2170557177000001 0.0004944329000000081
-0.42491272979999994 0.2165947682999998 0.0007560445999999776
-0.42520897339999975 0.21587822379999988 0.0010212314999999972
-0.42547460820000005 0.21518946209999967 0.0011098788999999998
-0.4259201559000001 0.21420373690000005 0.0012669046999999878
-0.4260574048999999 0.21383721520000032 0.0015696325999999816
-0.4263945909000002 0.21301379350000005 0.0018593221000000049
-0.4266990305 0.21226706979999976 0.002026320800000009
-0.4269841714 0.2115762079000003 0.0023756929999999843
-0.4271932748 0.2110086766000001 0.002641321599999996
-0.42738813340000004 0.21046184580000027 0.002755846499999992
-0.42767077789999997 0.20974314240000025 0.002906417699999997
-0.42795304010000024 0.2090384273999999 0.003275840199999991
-0.42814682549999983 0.2085148698000001 0.0036428217000000207
-0.42821359879999976 0.20818547399999998 0.003811736900000001
-0.4283985719000003 0.20764492930000022 0.003983866200000005
-0.4286901725000001 0.20691771160000005 0.004341276899999996
-0.42879313419999976 0.2065775535000003 0.004657178800000009
-0.42892345139999977 0.20612210110000007 0.004898316099999994
-0.4291872322000003 0.20542347559999996 0.005159050700000001
-0.42931843720000007 0.20499872449999978 0.005438191100000003
-0.4299478553 0.20359752330000003 0.005835157399999985
-0.42995165300000027 0.20337945330000018 0.006057635999999991
-0.4300973397000001 0.20287539799999976 0.0063223523
-0.43027031599999965 0.20237159319999964 0.006617787799999997
-0.43037104699999995 0.20201559909999967 0.0068962204
-0.43047009419999993 0.20161298289999996 0.007177313199999993
-0.4306746208000001 0.20099278060000003 0.007485338600000002
-0.43206647060000014 0.1980071928 0.007909421900000005
-0.43199014999999985 0.19798852100000008 0.008196100499999998
-0.4319936766000003 0.19777724460000012 0.008469327299999996
-0.43206517469999994 0.19743143210000014 0.008762634499999991
-0.4321264890000003 0.19716213980000008 0.009087603999999999
-0.4322238062000001 0.19674408500000018 0.009400143699999988
-0.4323763533 0.1962074128000002 0.009689847299999998
-0.43253622459999974 0.19568663240000017 0.009984332400000004
-0.43268035739999977 0.1952376397000002 0.010324616999999994
-0.4328378095999996 0.19470578630000013 0.010652893299999994
-0.43303186709999997 0.1940702608999998 0.010947434700000008
-0.4332321712999998 0.1934660194000002 0.011274528800000003
-0.43339449789999973 0.1929615077000002 0.011632265099999997
-0.4335850131000001 0.1923328284000001 0.011975430999999995
-0.4337885090000002 0.19168261579999957 0.0122758429
-0.4339741759 0.19111997839999972 0.012627784399999994
-0.43416795740000014 0.19049450039999982 0.012987272699999997
-0.4344023181000001 0.18976970300000007 0.013286229100000005
-0.43462028649999995 0.1890964024999997 0.013568784099999995
-0.43482181360000016 0.18848345069999972 0.013914919900000003
-0.4350347877999998 0.18781060679999984 0.0142979736
-0.4352637873999998 0.18708581120000023 0.01461462790000001
-0.4356887853 0.1859470081000003 0.014927148099999996
-0.4358416505 0.18542106710000006 0.015252724199999998
