0.33394033960000025 -0.30461332530000007 -0.1550487573
0.3336878193999997 -0.3051322180999998 -0.1545438757
0.33334456560000003 -0.3056231293999998 -0.1542752482
0.33312655400000013 -0.30604196549999996 -0.1539634791
0.33301440330000043 -0.30642913829999996 -0.1534597742
0.3328528223 -0.30683244880000027 -0.15299106369999999
0.3326787914999998 -0.30719985439999986 -0.15262540930000001
0.3326222481000003 -0.3075197555 -0.152160541
0.33261508809999984 -0.30782041430000007 -0.15157565750000002
0.33256634799999985 -0.30812192100000013 -0.1510603086
0.3273651045000001 -0.31388098090000005 -0.1505203201
0.3274566296000003 -0.3139691285999997 -0.1501919969
0.32759863300000003 -0.31406628160000016 -0.149690146
0.3276733647000003 -0.3142588304 -0.149098639
0.32773920740000007 -0.3142914508999999 -0.1488956904
0.32791656130000035 -0.31432289729999985 -0.1484878251
0.32812607550000017 -0.3143488307000002 -0.1479899859
0.3283018872999999 -0.31437721100000005 -0.1475749044
0.3284262054 -0.3143767516000002 -0.147291694
0.3286665206000001 -0.3143543216999998 -0.1468661435
0.3289280358000002 -0.3143134503999998 -0.14638539820000002
0.3291615340999998 -0.31427745500000004 -0.14597946890000002
0.32936613449999985 -0.31422386450000017 -0.1456389516
0.3296468225 -0.3141563503999998 -0.1452067155
0.32999873540000024 -0.31407303860000013 -0.1446404754
0.3302886239 -0.3139824493000001 -0.1441837085
0.33054153399999997 -0.31389779819999974 -0.1438408226
0.3308766045000002 -0.3137826362999996 -0.1433510392
0.33118794120000006 -0.31365940420000005 -0.14297692469999998
0.3314704663999999 -0.3135294247 -0.1426535323
0.3317624213000001 -0.3134086638000002 -0.14226653920000001
0.33211105389999984 -0.31326535659999966 -0.14183862679999998
0.3324652615999999 -0.31310127209999994 -0.1414520795
0.33276661789999995 -0.31295384329999987 -0.14110219459999998
0.33304886740000006 -0.3128124538999999 -0.14079207700000002
0.333429234 -0.31264385620000024 -0.1403693801
0.33836482189999995 -0.3076246857 -0.1397755876
0.3385179007999999 -0.3075540265000001 -0.13965531890000002
0.3386973041000001 -0.30750223320000014 -0.139402004
0.3389564052999998 -0.30743844450000024 -0.1390144347
0.33922635069999973 -0.30736575219999995 -0.1386132926
0.3394534548000001 -0.3072935901 -0.13826679079999998
0.33967354500000013 -0.3072340982999999 -0.1379028512
0.34111117060000007 -0.3060008946999999 -0.1371897668
0.3412972129999998 -0.3059264215999997 -0.1370265739
0.3414546625999999 -0.30587342669999984 -0.1368085782
0.34160614899999997 -0.30584494269999984 -0.1365756069
0.34185619329999994 -0.3057923533000002 -0.1361818846
0.34211211929999985 -0.30572511020000004 -0.1357839373
0.3423193402 -0.3056787442000002 -0.1354351858
0.3425065492999999 -0.30564050630000006 -0.1351029893
0.3427556112999999 -0.30558478069999984 -0.1347165739
0.34317833380000007 -0.30547004300000014 -0.1339480504
0.3433289344000001 -0.305409214 -0.13376848989999998
0.3434849862 -0.30535311740000015 -0.1336178988
0.34372331160000025 -0.30531106880000003 -0.1332447549
0.34408004299999995 -0.3052396399999999 -0.1325440598
0.3442436902999999 -0.3051851258 -0.1323352579
0.3443967000999999 -0.30516229910000003 -0.1320947134
0.34472497839999994 -0.30510927649999964 -0.13144399180000002
0.3449448624000002 -0.3050624649999998 -0.1310581233
0.34506185040000004 -0.30502743610000005 -0.1309441406
0.3451873902 -0.30502464699999976 -0.13072255829999999
0.34540016409999996 -0.3049943921999998 -0.13035681229999999
0.3457032852000004 -0.3049977234000001 -0.1295855463
0.3457963825000001 -0.3049800143999999 -0.1294806764
0.34591290379999995 -0.30499356079999984 -0.1292523833
0.34609834469999967 -0.3049831341 -0.1289102325
0.34634410969999996 -0.30505129789999996 -0.1281211783
0.34643350409999973 -0.3050582738000003 -0.1279663019
0.34654340380000015 -0.3050879511 -0.1277234799
0.34673274089999984 -0.30509132240000003 -0.1273351108
0.34687084320000006 -0.3051862570999999 -0.1267718615
0.3469324030000003 -0.30521694460000015 -0.1266299115
0.34700507449999973 -0.30528512809999997 -0.1263774197
0.3471709041000004 -0.3053187827999997 -0.126005873
0.34728312559999974 -0.3055265709000001 -0.12519534270000002
0.3471083741000003 -0.30586161469999995 -0.1249201181
0.34680493340000007 -0.30639491509999983 -0.12453316449999999
0.34673214629999993 -0.3067524842999996 -0.1239276329
0.3467145638 -0.3069840787000002 -0.12348081030000001
0.34663997790000023 -0.30719769029999977 -0.12322994620000001
0.3465205690000004 -0.30750655920000014 -0.1228983337
0.34653515609999985 -0.30776797649999965 -0.1222869586
0.34654393410000006 -0.30793026439999993 -0.1219375476
0.34657397079999974 -0.3079978294000001 -0.1217821929
0.34652266870000004 -0.3082527732 -0.12135996410000001
0.3465497473000001 -0.3084562377000002 -0.1208500223
0.34653398899999965 -0.3086760127999999 -0.12040173549999998
0.3465451386999998 -0.3087739078 -0.1202072743
0.34656310050000005 -0.3089122926000001 -0.11992383939999998
0.3465784277999999 -0.30917790300000014 -0.11925654479999999
0.34665207610000026 -0.3092544964999999 -0.1189698811
0.3466656160000001 -0.3093956002999998 -0.118618372
0.3466868967000001 -0.3095427313000001 -0.1182681681
0.3467549742999996 -0.3096661633000002 -0.1178557308
0.34679564529999984 -0.3098036987999997 -0.1174472885
0.34678156809999994 -0.30998625639999977 -0.11704299700000001
0.34676356529999985 -0.31018230999999963 -0.1166868089
0.3467987857999999 -0.31033960820000006 -0.11627926899999999
0.34681071930000007 -0.31050662389999983 -0.1158538104
0.34677260509999996 -0.31072627249999973 -0.1154218399
0.3467667584999998 -0.3109376801999999 -0.1149795406
0.3467480527000002 -0.3111444376999999 -0.1145416244
0.34668483399999994 -0.31137392809999964 -0.1141177533
0.34660038240000013 -0.3116484252 -0.1136827759
0.3463109358999996 -0.31224109560000013 -0.11296895820000001
0.34622890109999993 -0.3124837854 -0.11266145059999999
0.34613274709999997 -0.31275229579999975 -0.1122428972
0.3454169886999998 -0.3138123952999998 -0.1113756553
0.34500588840000024 -0.31444481410000025 -0.11090004699999999
0.34490923019999986 -0.3146910878 -0.1106188698
0.34482120139999983 -0.3149584636 -0.1101704002
0.3446901053999998 -0.3152776639999999 -0.1097233859
0.3443022297999998 -0.31594171530000015 -0.108998305
0.3441912280000001 -0.3162076050999998 -0.10867898949999999
0.34407933300000026 -0.31649455800000004 -0.1082146655
0.3432727455000002 -0.3176514590999999 -0.1072430198
0.34277652319999996 -0.3183588784999998 -0.10677638480000001
0.3426509265000002 -0.31863127690000015 -0.1065013041
0.34253078159999983 -0.31891387469999977 -0.106051814
0.3420607991 -0.31964121069999996 -0.10527860530000001
0.3415717044000002 -0.3203549508000001 -0.104754453
0.341435127 -0.3206314480000003 -0.1044584947
0.34130952020000027 -0.32090922499999985 -0.1039777283
0.34114852949999985 -0.3212448151 -0.1034983665
0.34065733190000014 -0.32200001669999967 -0.10275372699999999
0.34050538890000004 -0.3222982650999997 -0.1024125044
0.3403519504000001 -0.3226048747000001 -0.1019163438
0.33981167160000014 -0.3234097155 -0.101073395
0.33959225729999964 -0.3237700842 -0.100775226
0.33834953180000005 -0.3253594635999999 -0.0995755656
0.3371187764000001 -0.32685093679999966 -0.098603998
0.3365541474000002 -0.3275682570999998 -0.098174816
0.33540256170000005 -0.3289099457 -0.0975168774
0.3345345500999999 -0.3300080959999998 -0.09667544130000001
0.3342029595999998 -0.3304804101000003 -0.0961594246
0.33380402779999985 -0.3310186022999999 -0.09568887949999999
0.3334053241999997 -0.3315496705000003 -0.09530309899999999
0.33314588190000016 -0.33198478819999977 -0.0947067264
0.33285135760000006 -0.33243331200000004 -0.0940536138
0.33273542329999994 -0.33265546749999997 -0.0937750765
0.3325899124 -0.3329130671999998 -0.09349968049999999
0.3325385178999998 -0.33309134139999985 -0.09310469799999999
0.3322317669999997 -0.3335951048000001 -0.09219715839999999
0.3320832610000002 -0.3338688260999998 -0.0918659732
0.3319065402999999 -0.3341578973999999 -0.09152573809999999
0.3318232406999999 -0.33436529849999985 -0.0910712615
0.3317484776999997 -0.33458478430000005 -0.090494027
0.3315973444 -0.3348935486000002 -0.0899668319
0.33137416929999963 -0.3352230048 -0.0895632873
0.33124070289999974 -0.3354938433000001 -0.0890914079
0.3310904296000001 -0.33578484720000024 -0.0885322006
0.33087274350000007 -0.3361383454000002 -0.0880111896
0.33059322359999976 -0.33653237299999983 -0.087609923
0.33041019559999985 -0.3368493020000001 -0.08711320389999999
0.3302059610000003 -0.33717316829999966 -0.086530564
0.32993477409999983 -0.3375827869000001 -0.085995533
0.32961276139999995 -0.3380182478 -0.0855748472
0.32939064129999984 -0.3383598577 -0.0850511099
0.3291463764000002 -0.3387228426000002 -0.0844448196
0.32883954140000027 -0.33916864629999965 -0.0838870441
0.3284736000999997 -0.33963239609999984 -0.0834554767
0.3282098261999997 -0.34001578259999965 -0.0829333627
0.3279228920999997 -0.3404166153000001 -0.08233535019999999
0.32757532850000004 -0.34087986059999986 -0.08177770349999999
0.32717051070000025 -0.341382383 -0.08135429229999999
0.3268779084000002 -0.34179130970000005 -0.08082453619999999
0.3265657127999999 -0.3421964208000001 -0.0802126738
0.3261939698999998 -0.34268311829999965 -0.0796410687
0.32574731570000015 -0.3432179780000002 -0.0792294396
0.32540791160000015 -0.34364920659999987 -0.0787059876
0.3250402440000002 -0.34410362139999995 -0.0781457998
0.3245948516999997 -0.34465008899999994 -0.0776924612
0.32419200979999996 -0.3451117191999997 -0.07721939
0.3238760591000003 -0.3455310044000002 -0.0766079638
0.3234649220999999 -0.3460272065000001 -0.0760612926
0.32304282800000017 -0.3465283764999998 -0.0755632014
0.3227087719999999 -0.3469513494000003 -0.0750107654
0.3223735063000004 -0.3473711164000002 -0.07439530750000001
0.32193357769999986 -0.34787735600000014 -0.0738827313
0.32150132269999965 -0.34838013729999995 -0.07343864480000001
0.3211135558999998 -0.3488241060999999 -0.0729344396
0.32079305069999986 -0.34923600489999984 -0.0723084442
0.31978931050000003 -0.3502807968999999 -0.0714011287
0.31936019879999966 -0.35076434300000026 -0.07102069800000001
0.3185344670000001 -0.3516365105000001 -0.0701431121
0.31820909790000007 -0.35201035449999996 -0.0696905106
0.3172121762 -0.352998237 -0.0690349441
0.3162854919 -0.35392338989999983 -0.0685007864
0.3155726430999999 -0.35463350139999994 -0.0678610464
0.3153532320000001 -0.35489921970000005 -0.0674437098
0.3145813592000004 -0.35567663770000024 -0.0667831406
0.31339224180000036 -0.35682097140000035 -0.0661432945
0.31315941140000003 -0.35707477899999995 -0.065857395
0.31266833699999985 -0.35760585560000013 -0.0651332413
0.3078543237 -0.36177173110000016 -0.0635350194
0.30797376079999994 -0.36172794090000027 -0.06338330040000001
0.30815923310000004 -0.36161547699999996 -0.0630910559
0.3084022178999999 -0.3615079269999999 -0.0626658641
0.30844039190000005 -0.3615681201000003 -0.0623391075
0.3084450512000001 -0.36164649939999993 -0.0620608832
0.30847954909999986 -0.3616830833 -0.06173682430000001
0.30853324120000014 -0.3617249083999998 -0.0612979885
0.30824587270000015 -0.3620706610000002 -0.0607307538
0.30791589880000014 -0.36243562260000006 -0.0603075195
0.3077001825000001 -0.3627020446999998 -0.0598000169
0.30768309329999965 -0.36277674289999995 -0.0593946525
0.30750033489999984 -0.36300494799999994 -0.0590796455
0.3070513183000001 -0.36347141689999996 -0.058645573699999995
0.30676651460000004 -0.36378558959999996 -0.058010358299999995
0.3066483189000002 -0.36395186840000004 -0.0576637859
0.3063538399999999 -0.3642551701000003 -0.057452381100000005
0.30580862510000006 -0.3647812277 -0.057068107699999995
0.3057190780000001 -0.3648980284000003 -0.0567023163
0.3056103590999997 -0.36506773189999997 -0.05624280870000001
0.3053194208000001 -0.36537473269999987 -0.0559644789
0.30472220429999997 -0.3659493290000002 -0.0555347432
0.3041341956000001 -0.3665042917000001 -0.054664682699999995
0.3027338744999999 -0.3677250843000004 -0.0536334857
0.30141716590000023 -0.3688082599999998 -0.053392346
0.3013543395 -0.3689204439 -0.0532627043
0.3013657582999998 -0.36896933480000005 -0.0527545409
0.30111769099999997 -0.36925485310000017 -0.0521466763
0.30075361119999977 -0.36959373750000024 -0.0519533177
0.3006624174999999 -0.3697262403999999 -0.0518012417
0.3006599058999999 -0.36977275879999993 -0.0515042805
0.3005580775000003 -0.36994105889999984 -0.050804891
0.30010013000000013 -0.3703666486000001 -0.0505309767
0.2999411746999998 -0.37054732 -0.0503358612
0.29989823059999976 -0.37062616660000014 -0.0499945673
0.2998078275 -0.37077256159999994 -0.049620227100000004
0.29949687469999997 -0.3710716822000002 -0.0494337202
0.2992513079000001 -0.37132520499999977 -0.0492401695
0.29899591160000005 -0.3715716907000002 -0.0485789337
0.29888336680000016 -0.3717321182000002 -0.0482022078
0.2981587133000003 -0.37234912080000004 -0.0479490646
0.29795842179999976 -0.3725612170999999 -0.0477037865
0.2975502385000004 -0.37292792230000016 -0.047171392
0.29729978909999977 -0.3731915411000002 -0.046945689799999996
0.29674440680000025 -0.37365430769999985 -0.0465928655
0.29665162440000037 -0.37377784149999993 -0.0462528953
0.29640381400000004 -0.37403836160000026 -0.0456368351
0.29613581200000016 -0.3742998480999997 -0.0454140549
0.2955039382 -0.3748166757 -0.04516270209999999
0.29513763020000017 -0.37515829730000005 -0.044721292499999996
0.2948521917 -0.37542981750000015 -0.0442134152
0.2943801157999997 -0.3758410296000001 -0.043849394599999994
0.29384892760000003 -0.37627198600000034 -0.0436724839
0.2935675483 -0.37653744789999966 -0.0433437155
0.29356859979999994 -0.3765779532 -0.0430120372
0.29324198320000017 -0.37689074359999974 -0.0425379487
0.29294921809999996 -0.3771418111 -0.0424395358
0.29254579530000013 -0.37750128299999997 -0.042291720500000005
0.2924948457000003 -0.37755769789999993 -0.0420038078
0.29235280890000004 -0.3777209399000001 -0.0416877978
0.29209212110000005 -0.37796574049999965 -0.041517364200000004
0.2919129632999997 -0.3781483578000002 -0.0413283544
0.2918431153000003 -0.3782261760000001 -0.0409843501
0.2916959886999999 -0.3783913662999998 -0.0405870647
0.2900130421 -0.37965179560000006 -0.0401465617
0.2888748633999998 -0.3805047735000002 -0.0396471235
0.2890147828999998 -0.3804310820000003 -0.0393874491
0.28905473199999987 -0.38046178889999993 -0.0390760852
0.28888343780000003 -0.380633628 -0.0389399696
0.28878212670000014 -0.38076124720000015 -0.0388241769
0.28876883110000007 -0.38079931200000017 -0.0385684067
0.28868142399999996 -0.3809143784000004 -0.0382792053
0.28844288770000004 -0.3811319785 -0.0381687879
0.28831111509999996 -0.38126668289999976 -0.0379950847
0.2882702209999999 -0.3813114310999999 -0.0376493309
0.28815173020000007 -0.3814577248000002 -0.0372919007
0.2878056580999999 -0.3817548479999999 -0.0371594348
0.2875929558000001 -0.3819431632000003 -0.0370154993
0.2874477369999999 -0.38206815390000015 -0.036749833999999995
0.28720773799999977 -0.38228817840000007 -0.0364872336
0.28694227270000017 -0.3825055717999999 -0.0362920457
0.2857259904 -0.38338991099999964 -0.0356345047
0.2855213296999999 -0.38357435179999966 -0.0351657776
0.28493938839999977 -0.38401145000000003 -0.035015417800000004
0.28446679759999993 -0.38435743199999983 -0.0350962823
0.2844723856 -0.38439087999999977 -0.034873964199999996
0.28465244720000005 -0.3843047904999999 -0.0343910735
0.2842894894999999 -0.38460058230000005 -0.0342367479
0.2839334797000004 -0.38486681759999986 -0.0342674517
0.2839451902000003 -0.3848960399000001 -0.0340892896
0.28392310970000034 -0.38492522340000024 -0.033807663
0.28357889169999995 -0.38520424939999964 -0.033627498000000006
0.28311635820000003 -0.3855503950000001 -0.0337006064
0.2830945908999998 -0.38559293929999994 -0.033546319
0.28311229110000014 -0.3855888763000004 -0.0331506069
0.2828051819999997 -0.38584612269999985 -0.0329069735
0.28257553720000006 -0.3860320948 -0.0328588001
0.2825182742000001 -0.3860984182 -0.0327396129
0.2825087889 -0.3861139036000001 -0.0323976834
0.2823499436000003 -0.38626547710000025 -0.0321918217
0.2820684741999999 -0.38647941900000005 -0.0321362379
0.28193282659999985 -0.38660157159999997 -0.0320185505
0.2818870508 -0.3866431021000003 -0.0317689195
0.2817071564 -0.3868048278999998 -0.0315214395
0.2813859647000001 -0.38704543960000004 -0.0315161241
0.2812359659000001 -0.3871683331 -0.0314723417
0.28117426420000013 -0.38720686130000015 -0.031249236399999998
0.28100825799999996 -0.3873578701000002 -0.031001421100000003
0.28041230829999986 -0.3877684438000002 -0.0311003952
0.2803302640000003 -0.387844308 -0.0309469874
0.2802588512999997 -0.387906128 -0.0307573376
0.2800418668 -0.38808249189999966 -0.0306385463
0.27985987639999976 -0.38820539259999975 -0.030564152100000002
0.27989944220000007 -0.3881899068000001 -0.0303323874
0.2798760588000002 -0.3882222093000003 -0.0300932179
0.2796366977 -0.3884118528 -0.029991108500000002
0.27936300700000016 -0.38860906959999975 -0.030017112999999998
0.2793722038000004 -0.3886010339000001 -0.0298657261
0.2792905511999999 -0.3886744055999998 -0.0296848065
0.2791255241999999 -0.3888066942999999 -0.0295596211
0.2790839067000004 -0.38883896940000007 -0.0294397794
0.2789910984999997 -0.38891780340000004 -0.029298581299999998
0.27874987250000016 -0.3890789493 -0.029213491799999998
0.2785702228 -0.3892126236000002 -0.029170708999999996
0.2785136064000002 -0.3892559421999997 -0.0290576687
0.2784586683999999 -0.3893009629999997 -0.0288953833
0.2782817367999999 -0.3894238819 -0.0287690251
0.278124622 -0.38953027129999995 -0.0287214631
0.27802627049999984 -0.3896077603000001 -0.028624561800000003
0.27790450349999984 -0.3896880757000001 -0.0285010008
0.27775127459999993 -0.38980319330000013 -0.028418376599999996
0.27757357700000007 -0.3899202331999998 -0.0283631675
0.27752408939999995 -0.38994864220000025 -0.028247689899999998
0.27750437680000006 -0.3899720703999998 -0.0280909227
0.2767615814000002 -0.3904457429999999 -0.0281010936
0.27670792069999983 -0.3904780294000001 -0.0280111954
0.2768254242000001 -0.39041489930000006 -0.0278781673
0.27678596350000007 -0.3904409729 -0.0277548473
0.27671109939999994 -0.3904954625000001 -0.0276820584
0.2766756156999999 -0.3905271631999998 -0.027613921
0.27669384769999983 -0.39050713770000023 -0.0274930758
0.27663830739999984 -0.3905514376000001 -0.027386833800000003
0.2764608626 -0.39066019249999995 -0.0273696414
0.2763906995000003 -0.3907004498000002 -0.0273331319
0.27645624180000006 -0.3906585746000002 -0.0271948302
0.2763754959 -0.3907119686999998 -0.0271004842
0.27620662699999965 -0.39080764719999994 -0.027093830699999998
0.27619356009999985 -0.39081288140000003 -0.02708819
0.27622071409999993 -0.3907901722 -0.0269658444
0.2761281699000002 -0.39084028009999994 -0.026896267800000002
0.27595726890000005 -0.3909521222000003 -0.02692506
0.2759045070999999 -0.3909785108999997 -0.026887475900000003
0.27592657350000005 -0.3909455397999997 -0.0267650735
0.2757848721 -0.39104666209999994 -0.026733584400000003
0.27563163930000023 -0.3911315152000001 -0.026733947700000003
0.2756538246 -0.3910993418000004 -0.026624394699999998
0.2757867198999997 -0.391015393 -0.0264393318
0.27569936240000015 -0.39106538660000023 -0.0263552725
0.27553305299999975 -0.3911374664 -0.0265139732
0.2759606960000003 -0.39086868500000005 -0.026204417800000004
0.27597939469999977 -0.3908572610000003 -0.0261182228
0.2757728394000001 -0.39096181519999984 -0.026196827799999996
0.2755074288000001 -0.39112301689999995 -0.0264389208
0.2755511674000002 -0.3910798902999999 -0.0263126911
0.27560046479999967 -0.3910418647999996 -0.026144092699999996
0.2755414003000003 -0.39107508130000035 -0.0260739647
0.2754837059999997 -0.3910935800999997 -0.026063560899999998
0.27556212309999983 -0.39103400599999993 -0.025907637900000002
0.2756016428999999 -0.3909973296000002 -0.0257593442
0.2753401257000001 -0.3911399047999997 -0.02597824609999999
0.2753940368000003 -0.39108183320000034 -0.025906937400000003
0.27557595970000026 -0.39095972060000017 -0.025684862699999998
0.27572758539999986 -0.3908606775000001 -0.0254190055
0.27547423140000005 -0.39099614029999996 -0.025652187799999997
0.2754766619 -0.3909805562999997 -0.025663694400000006
0.27567794710000015 -0.39084169599999985 -0.025418809699999996
0.2757472216000001 -0.3907889551999997 -0.0252183041
0.2756806478999998 -0.3908204702 -0.0251993498
0.2757452962999998 -0.3907591277 -0.025080452200000006
0.27586235289999994 -0.3906799125 -0.024906756100000003
0.2758702209999999 -0.39066552109999986 -0.024780553000000004
0.27562819559999996 -0.39079315569999995 -0.024954807500000002
0.275626838 -0.3907769489999997 -0.024891474500000003
0.27571935690000027 -0.39070846280000016 -0.0247467532
0.2757040530000001 -0.3907072477 -0.0246491135
0.2756251209 -0.39073530430000014 -0.024632656499999996
0.27571050109999984 -0.39065936379999977 -0.024484224199999995
0.27580781220000006 -0.3905864055000001 -0.024320664999999998
0.2758053533 -0.39057653699999983 -0.024210739699999997
0.2757611901999999 -0.3905776537000003 -0.024253631399999996
0.27629617080000024 -0.39022424919999965 -0.0240982364
0.2763228682000003 -0.3901894836000004 -0.023890702800000004
0.2762404527000002 -0.39023033520000006 -0.023855497599999997
0.27609328330000027 -0.39030864040000024 -0.023935300500000006
0.27612353219999974 -0.3902591320000002 -0.023851224199999993
0.27621312939999987 -0.3901928200000002 -0.023689850999999998
0.2762115544000001 -0.39018628139999967 -0.02351503869999999
0.27611633940000013 -0.39022978529999985 -0.023523268
0.2761695608000001 -0.3901649599999999 -0.023410315899999992
0.27628559520000007 -0.3900876221999998 -0.023212062899999997
0.2762700790999997 -0.39008053510000007 -0.023067282100000003
0.27619756939999984 -0.3901110160000001 -0.023080961600000005
0.2762664533999999 -0.3900450927999999 -0.022966326200000012
0.2764087203000001 -0.3899483412999998 -0.022731634299999998
0.27642787229999977 -0.38991479039999977 -0.022530566499999988
0.2763643134000002 -0.3899446179999999 -0.022522790700000003
0.27642670020000004 -0.38987767410000007 -0.022394954499999994
0.27655356389999985 -0.38979470120000004 -0.022183393800000006
0.2765812232 -0.38975636489999976 -0.0219820161
0.27652353499999993 -0.38978216330000004 -0.021967773999999995
0.27660646620000007 -0.3897041779000001 -0.0218080873
0.2767387491000002 -0.3896200415000002 -0.021570882200000002
0.2767629493999997 -0.3895935037 -0.021376516100000006
0.2767108886999998 -0.38960787360000015 -0.0213264098
0.27679144629999985 -0.3895181309 -0.021130151400000005
0.2769440243000001 -0.3894238504999996 -0.020869750999999992
0.2769717943000001 -0.38938721739999993 -0.020644278899999993
0.27692310629999994 -0.3894094591999999 -0.020614620600000008
0.2770067491999999 -0.3893266544 -0.020428568199999997
0.2771741272999999 -0.38922132809999965 -0.020141926699999993
0.27722708399999973 -0.3891662872999997 -0.01986349629999999
0.27718264559999994 -0.3891894848999997 -0.019799883399999996
0.27725153560000004 -0.3891099796999997 -0.019592130799999996
0.2773904325000003 -0.38902554830000025 -0.01933068119999999
0.27742934220000004 -0.3889801923 -0.019060096400000004
0.2773969287 -0.38899491229999983 -0.018972381799999993
0.2774685295999997 -0.3889179353000003 -0.018740234699999997
0.27767633960000015 -0.3887859425000002 -0.0183710428
0.2777397066999998 -0.38872686010000024 -0.018010011300000003
0.2777344596 -0.3887254748000002 -0.017841200200000004
0.2778435319999999 -0.38863836760000003 -0.017282786300000005
0.2778758723000001 -0.3886246682000003 -0.017105407000000003
0.2778420209000001 -0.3886133169999999 -0.0169176328
0.2777796199 -0.3886481753000002 -0.0168806606
0.27789100200000005 -0.38854611760000024 -0.016387800199999997
0.2780333396000003 -0.3884552119000002 -0.0161143262
0.27809510849999963 -0.3883968209999997 -0.0155926433
0.2780213506 -0.38844556480000003 -0.015537178999999998
0.2775446609000003 -0.38873757819999977 -0.014561250400000003
0.27767045889999986 -0.3886543789000001 -0.014451292399999996
0.27771284549999997 -0.3886014472000001 -0.014262613600000001
0.2777080634 -0.38860222119999976 -0.0142107801
0.2779048958999999 -0.3884436720000002 -0.013333863200000004
0.27802138759999995 -0.38836990280000006 -0.013189583899999996
0.27805644760000003 -0.38832226899999966 -0.012964626999999992
0.27804237109999974 -0.3883304155 -0.012883548999999994
0.2781587484000001 -0.3882035058000004 -0.01257889420000001
0.2784088411000001 -0.38804955250000006 -0.012158906800000008
0.2777027542999999 -0.3885080910000003 -0.010747271899999994
0.2776088849999998 -0.3885668081999998 -0.010906917099999996
0.2778140977999999 -0.3883839497000001 -0.010346310299999995
0.27795872229999974 -0.3882928783999997 -0.010224347999999994
0.2781481521 -0.38814683149999984 -0.009457963200000002
0.2780945497 -0.38817446990000004 -0.009475877699999996
0.2782053138 -0.38805809390000023 -0.009248175499999997
0.2784798033999998 -0.3878993219 -0.008101612599999988
0.2784500899000002 -0.38790419960000033 -0.0080087207
0.2783774274999997 -0.38792224990000035 -0.00793809320000001
0.2785276012 -0.38779057250000015 -0.007641026800000006
0.2789059668 -0.38754506599999994 -0.006358059999999999
0.27887240130000013 -0.38756189669999985 -0.006198795100000001
0.27882097380000026 -0.38757629299999996 -0.006065530200000002
0.2789682654000001 -0.38741721520000016 -0.0056563411000000036
0.279209614 -0.38725760619999994 -0.005123697699999999
0.27925949110000037 -0.3872096824 -0.004656342799999991
0.27924786550000036 -0.3872015242 -0.00437811669999999
0.2794126805000001 -0.38704142119999974 -0.0038677667999999915
0.27966333220000017 -0.3868716139999999 -0.003229265600000003
0.27971441949999987 -0.38681709369999995 -0.002677779500000005
0.27978190829999994 -0.3867495744 -0.0022302585000000125
0.2799003562000002 -0.38663621029999984 -0.0016548070000000081
0.28004720800000005 -0.38653280030000037 -0.0010678714999999978
0.28009244519999976 -0.3864602402999999 -0.00048804380000000425
0.2775966017 -0.38808699099999977 0.0013845312999999915
0.2777888635000001 -0.38793411440000014 0.0015605052000000064
0.2781140698000004 -0.38769655830000005 0.0019866476999999966
0.27828005069999984 -0.3875538396000002 0.002393911100000007
0.2784040389000002 -0.3874534536999996 0.0026865254000000005
0.27870413989999987 -0.38720999769999986 0.003241779
0.2790476779000004 -0.38696069999999994 0.0039080089000000096
0.27916835130000006 -0.38683853059999995 0.0044783924999999974
0.2792447833999998 -0.3867647139999999 0.004894249999999989
0.27950903920000014 -0.3865352971 0.005562445499999999
0.2798497578000001 -0.3862849651999998 0.006355360300000001
0.2799244377000001 -0.38619624129999996 0.007030811200000001
0.2799967215000003 -0.3861233112 0.007563641699999998
0.2801553232999998 -0.3859612652000002 0.0082595107
0.2803725591999999 -0.38578955039999974 0.00902647840000001
0.2804259633999999 -0.38570367620000034 0.009755715799999995
0.28044598349999994 -0.3856501847999998 0.01035203500000001
0.2805344500000002 -0.38552398760000006 0.011791326500000004
0.28068687489999977 -0.3853825792000003 0.0124916224
0.28060923560000006 -0.38538901700000006 0.013137269599999987
0.28054246029999996 -0.3853997565 0.013657017399999999
0.2806748883000001 -0.3852217939 0.015213941600000003
0.28065862239999984 -0.38519934010000023 0.01580636910000001
0.28038284260000035 -0.3853395594000002 0.01626139060000001
0.27996892250000016 -0.3855664817000002 0.0170653343
0.28007124380000015 -0.3853991936000001 0.018406082899999995
0.2799888179000001 -0.38542434049999974 0.018904015499999996
0.27987895350000036 -0.3854471337999996 0.01942690579999999
0.2799700986000002 -0.3852959726999998 0.020869709099999995
0.2798796822999998 -0.3853003879000001 0.02142673610000001
0.27973196339999973 -0.38537161090000005 0.021924575400000007
0.2795362533999999 -0.38541113030000007 0.0231240412
0.2795584789000003 -0.3853322179000003 0.023728324699999997
0.27952016670000024 -0.38530537040000024 0.024412362899999998
0.27944006519999975 -0.3853077802999998 0.025061789
0.2794461814 -0.3852214542999999 0.02578715749999999
0.2795788698999999 -0.38505743100000034 0.026662674899999995
0.27960488519999993 -0.3849672538000002 0.027564002199999993
0.2795043699999997 -0.38497143499999975 0.0283313911
0.2794472455000001 -0.3849376889 0.029115992900000005
0.27942018140000036 -0.3847995326000002 0.030913671400000002
0.2793246346 -0.38478529849999976 0.031682162699999995
0.27910051410000003 -0.3848888112000002 0.0323671393
0.2786403050999997 -0.38507177120000025 0.0337152285
0.27832699680000017 -0.3851644581000002 0.0350714433
0.2781777375000001 -0.38519356260000004 0.03573235860000001
0.2775031766999998 -0.3855607770999998 0.036838392399999996
0.2763946235999999 -0.38618330570000037 0.038044401500000005
0.2760272009999998 -0.38632364779999984 0.03903670459999999
0.27567469729999994 -0.3864411389 0.0401675652
0.27493165490000004 -0.38688859770000006 0.04090948999999999
0.27389581399999985 -0.38746195299999986 0.041854573900000004
0.2690144510999999 -0.39052309419999975 0.043456170899999993
0.2690487787999998 -0.39042063019999995 0.0441640024
0.2688459404999999 -0.39051504569999995 0.04457456160000001
0.2687447044 -0.39049654359999986 0.045100036700000005
0.2690421403000003 -0.39013228590000004 0.046572468199999995
0.2691475136000001 -0.38993471270000013 0.04767658040000001
0.2688040481999998 -0.3900838246 0.0485015039
0.26777196430000005 -0.39062358060000024 0.0495199132
0.26759838400000024 -0.3905823588999997 0.050800806700000006
0.2673481296000002 -0.39063712939999995 0.051731413100000005
0.2666427157000002 -0.390958516 0.0529141117
0.2656041451000002 -0.3914699008999998 0.054149380999999996
0.2652473651 -0.3916008227000001 0.05493962770000001
0.26480220899999996 -0.3917729742999998 0.055874138399999995
0.26427314169999994 -0.39200747430000016 0.0567384533
0.2635137701000003 -0.3923125606000002 0.0580561854
0.26286314089999996 -0.3925353870000001 0.0595507487
0.2626186734 -0.39262427729999994 0.060065327099999996
0.2618036585000003 -0.3930255989 0.0610049076
0.2610530918 -0.39336080429999987 0.0618790148
0.26071291409999997 -0.39339943490000007 0.0631814696
0.26048594509999967 -0.39344223870000006 0.0639157796
0.26001472150000016 -0.3936570187999999 0.0646176798
0.2596649015999999 -0.3937608976 0.0652820614
0.2596117014999999 -0.3936435923000001 0.0662281763
0.25945239529999986 -0.3935803627000003 0.06742190349999999
0.25899795049999996 -0.39373297460000023 0.06847207329999999
0.2585927882000001 -0.3938290568 0.0694226062
0.2584033418999998 -0.39375990829999985 0.0705749307
0.2580733297000002 -0.39376855089999996 0.0719221853
0.2565483933000001 -0.39442031239999986 0.0738848612
0.25480341520000005 -0.3952653358 0.0752106776
0.25335288469999995 -0.3958991406000001 0.07672226060000001
0.2516184657999996 -0.3967110930000004 0.0781833357
0.24928357450000016 -0.39798372690000017 0.0790759007
0.24730008220000022 -0.3990053698999998 0.0799301969
0.24543465250000018 -0.3999180243999998 0.0810010879
0.24322680509999994 -0.40106886789999985 0.0819221184
0.24118523260000035 -0.4020791348000001 0.08277093199999999
0.23934357630000003 -0.40293846329999994 0.0837834815
0.23739833030000002 -0.40384413650000006 0.08493765539999999
0.23636876929999984 -0.4043366571 0.085520937
0.23417500319999984 -0.4053684501000001 0.0865060737
0.22970971820000008 -0.40748141039999997 0.0880372692
0.22643008450000002 -0.40901495899999984 0.0891855691
0.22531613240000015 -0.40955162189999994 0.089606569
0.2241737143 -0.4100796795999999 0.09002504450000001
0.22215847470000005 -0.4109114495999999 0.0910825071
0.22012450250000004 -0.41170422890000014 0.09244908760000001
0.2190178371 -0.41214941149999973 0.0931814025
0.21783414820000013 -0.41263355830000004 0.0938566849
0.21686747160000008 -0.41296144319999994 0.09459621829999999
0.21471050410000014 -0.4136382193999997 0.0965585464
0.21345603010000014 -0.4141001557999999 0.0974889055
0.2121889450000003 -0.4145426640000003 0.0983298168
0.21107673879999966 -0.4148884208000001 0.099199219
0.20853869819999993 -0.4156501374000001 0.1013477953
0.20704053810000023 -0.41617282750000006 0.10238304899999999
0.20548147510000003 -0.41672744060000033 0.10323701760000001
0.20411407819999994 -0.4171788449 0.1040307484
0.19925753530000012 -0.4187908534 0.1065362146
0.15253718110000003 -0.43806524020000026 0.1000091768
0.15240498240000022 -0.4381333595000001 0.1001870216
0.15241898149999988 -0.43807004529999993 0.100798789
0.15103654560000024 -0.43775716949999977 0.1041602365
0.15068564530000028 -0.4378144101000001 0.1047412724
0.1503971636000001 -0.43780595580000004 0.105403943
0.15019648769999971 -0.4377233854 0.10624998399999999
0.1481857890999998 -0.4375130262 0.1097113767
0.1475376304 -0.4376145130000002 0.1104945457
0.14690937039999996 -0.43767929080000023 0.1112427216
0.14641751650000012 -0.4376769488000001 0.11204556730000001
0.14591874170000008 -0.4376202779999998 0.1133569832
0.1453315397999999 -0.43750258750000004 0.1148043601
0.1446941595000002 -0.43740175310000007 0.116091922
0.1440659729 -0.4372921769999998 0.1174632484
0.14142511839999994 -0.4370623491000001 0.1212826269
0.14043102679999997 -0.43716209269999995 0.12222464520000001
0.13950210149999975 -0.43723019360000004 0.1232246847
0.13759850210000035 -0.437224268 0.12538272350000002
0.1366072988 -0.43728843669999984 0.1265142837
0.13557960870000008 -0.4373051596999997 0.1276449181
0.13463068209999962 -0.43733667659999975 0.1287793835
0.13147211300000006 -0.4372714473000001 0.1319855377
0.1303757099999996 -0.4373964011 0.1329462672
0.1282022139000003 -0.4374907963000001 0.13470539269999998
0.12497299049999988 -0.43768270210000004 0.1369831669
0.12393263490000006 -0.4378108193000001 0.1377761056
0.12295435060000015 -0.43787541979999967 0.1388000712
0.12108519909999993 -0.4377995427000001 0.1407371347
0.11821807880000001 -0.4377564638 0.1432331298
0.11625728670000024 -0.43786085939999975 0.1446213474
0.11535050439999983 -0.4379245319999998 0.1455217503
0.11460814450000001 -0.4378785463999999 0.1466324752
0.11143413980000005 -0.4374686475999998 0.15011411470000002
0.10969214879999978 -0.4375081625999999 0.1514325825
0.10889107950000021 -0.4375300154999997 0.1523644737
0.10093369380000006 -0.43826524519999976 0.1550472457
0.09858151139999993 -0.4382682452000002 0.1567754364
0.09818354869999979 -0.43832216189999995 0.1573315569
0.09656636980000011 -0.43790864649999994 0.1596090176
0.09539851419999978 -0.43750179340000006 0.1617626952
0.09492242009999963 -0.43724625800000005 0.16321700509999998
0.09433970310000017 -0.4369126229 0.1647325155
0.09365352070000021 -0.4362676824 0.1671855709
0.09338555550000027 -0.4357989333000001 0.1690793195
0.09329002230000016 -0.4355611612000003 0.170299865
0.09289260850000014 -0.43481114570000035 0.17269654769999998
0.09257378339999978 -0.4341111609000001 0.1750427259
0.09239284760000022 -0.43337889799999996 0.1774515245
0.0923104508999999 -0.43307203009999995 0.17885636179999997
0.09216562709999998 -0.4326169874999999 0.1804418468
0.09158794580000018 -0.43125474259999974 0.1841653506
0.09151136520000014 -0.43093872740000005 0.1856232267
0.09147688240000029 -0.4304950869999997 0.18733093499999998
0.09139148809999975 -0.42989815060000014 0.1891513716
0.09114653009999962 -0.42865742299999976 0.1924227187
0.09092767329999996 -0.42760872039999986 0.19540862450000002
0.0908009157999996 -0.42717445119999997 0.197090916
0.09063876230000023 -0.4265733102999998 0.1988748702
0.09053730940000015 -0.42590465290000035 0.2009255818
0.09054734219999983 -0.4251237391999996 0.2032776727
0.09049266079999985 -0.4242924724999999 0.2055574359
0.09039045020000014 -0.4234551514999998 0.20776237260000002
0.08364966740000002 -0.42136237860000003 0.2144282067
0.08373794709999993 -0.4209741639 0.2159106677
0.08367199239999978 -0.4202990849999999 0.2178078118
0.08373901189999966 -0.4199033407999999 0.2191405521
0.08393778549999986 -0.41930012140000006 0.2210105953
0.08425686580000002 -0.4176732866999999 0.2246933446
0.08429416169999993 -0.41701468289999966 0.2264718258
0.08431868989999991 -0.4162775335000002 0.2282544942
0.08444089429999968 -0.4154412905 0.2304552194
0.08456116599999985 -0.41349299640000003 0.2346737336
0.0836726683000002 -0.41102842819999985 0.2396332618
0.08266239629999994 -0.41006677830000005 0.2419061475
0.0824986930999998 -0.4094122438000003 0.2438588732
0.08233858520000004 -0.40837373539999966 0.24650818279999998
0.0817010065999999 -0.4068277345000002 0.2498030236
0.08103381529999965 -0.4058461067999999 0.2519933095
0.08100515759999993 -0.4054547999999998 0.2535351833
0.08107680160000008 -0.40470154469999997 0.255776034
0.08050976390000031 -0.40218466490000004 0.2604106283
0.08004271519999984 -0.4011106506000002 0.2627018549
0.07965153889999987 -0.39991348969999985 0.2654368853
0.07919037120000016 -0.3984892996 0.2686109673
0.07822692929999997 -0.39675547249999976 0.2719398838
0.0724861538999999 -0.3961125296999999 0.2746266963
0.07258127980000006 -0.3959043955000001 0.2758716329
0.07272092540000008 -0.3952123589000003 0.2779543713
0.07279471129999981 -0.3942295779 0.2800397225
0.07249916059999961 -0.3916849079000002 0.28403264159999997
0.07195242209999986 -0.3897862132000003 0.2876145837
0.07122131980000024 -0.3878376052000001 0.2914268447
0.07035423259999973 -0.3863711417000002 0.2941907453
0.06955649770000027 -0.3854584338999998 0.2959892454
0.06885421459999996 -0.3840983574000001 0.2988397507
0.06768015610000022 -0.38180335959999967 0.3031290066
0.06674721819999974 -0.38057335729999986 0.305550206
0.06620150439999994 -0.3800420453000002 0.3066914364
0.0657612823 -0.3789025013999998 0.3092714766
0.0648322754999997 -0.3768144727 0.3129269978
0.06446704659999991 -0.37642149030000027 0.31394143890000004
0.06381222290000022 -0.37494992010000017 0.3167423371
0.06353452809999993 -0.3740769308999998 0.319005157
0.06322103759999997 -0.37291785359999974 0.3212872333
0.06281556229999996 -0.37175276980000005 0.32325493520000004
0.062373741200000055 -0.3706082555000001 0.3253036138
0.061418243499999914 -0.36788820079999995 0.3297850387
0.06087054599999986 -0.36666524980000004 0.3323193403
0.060247622899999964 -0.3654387143000002 0.3342991933
0.05955056829999972 -0.36441492870000003 0.3358776718
0.058947682899999965 -0.36320506340000014 0.33853453710000003
0.058352270999999956 -0.36163155699999994 0.3415696111
0.057661012100000075 -0.3600365613000003 0.3440272964
0.05685017540000015 -0.35876767669999987 0.3457806764
0.05610844530000003 -0.35741501220000016 0.3485213695
0.05461637649999984 -0.35373087819999993 0.3540728145
0.05375461690000005 -0.35252347230000014 0.3558130616
0.05289817239999994 -0.3515064957999998 0.3575263088
0.051390625999999884 -0.3485848838000001 0.3621501223
0.05058319789999999 -0.3475180781999998 0.3638903764
0.04974680910000018 -0.3467199754000001 0.3650487603
0.04898210720000007 -0.345846109 0.3669065451
0.04604582860000006 -0.3416658228 0.37247043
0.04418614419999978 -0.3401500071000001 0.3748337291
0.04358497799999972 -0.3402047402999999 0.3748389353
0.0413148539999999 -0.33832400530000006 0.37802103600000003
0.03740030139999995 -0.3360970076000003 0.3815466702
0.03729830479999974 -0.33599364760000006 0.382026428
0.03708244589999987 -0.3349207406999999 0.383814029
0.036985709800000155 -0.3325758742999998 0.3874752327
0.036600945100000004 -0.33032941279999983 0.3905459199
0.036139890600000335 -0.33001493150000005 0.39093464590000004
0.03579049309999993 -0.32970700399999986 0.39175270360000003
0.03570319989999993 -0.3277164736000002 0.39530768390000004
0.03557987659999995 -0.32680149719999996 0.39685646090000004
0.03512494719999992 -0.3251861140000001 0.3987577357
0.0349581993000001 -0.32439936049999973 0.40049175260000003
0.0345786092 -0.3218113174999999 0.40400209639999995
0.034349410999999996 -0.32077368280000007 0.4057167694
0.034034432399999925 -0.3200755566 0.4064055379
0.033753330999999775 -0.3194434191000002 0.4076465005
0.033600897199999924 -0.3182403547999999 0.4102121889
0.033121633799999994 -0.31553568239999974 0.4132850952
0.032779938700000066 -0.3149851088000002 0.4138123309
0.03254048900000006 -0.31431034830000026 0.41534686249999997
0.032108129699999655 -0.3120896805000002 0.41838122089999996
0.03193316589999995 -0.3111215994000003 0.4200987622
0.03172378510000007 -0.3102821202000001 0.4211862117
0.03149621040000028 -0.3096009846000003 0.4223115699
0.031128333799999908 -0.30762291269999986 0.4250639436
0.03101249940000006 -0.3066839012 0.4267932347
0.030407295100000287 -0.30515853319999975 0.4281138292
0.030345700300000278 -0.3047374422 0.4294124707
0.03024522730000001 -0.30253398370000006 0.43259020670000004
0.029861925600000117 -0.29981421610000014 0.4356658989
0.029591254700000125 -0.29961826190000007 0.4358592682
0.029511662400000027 -0.2991941828 0.4369407521
0.029563973699999746 -0.2980057307999999 0.43898668510000005
0.02955874309999995 -0.2961512887000004 0.44122420929999995
0.029493392000000007 -0.2956790227999999 0.44203560890000004
0.029506597299999715 -0.29552314089999987 0.4428163579
0.0296275407000004 -0.2948801526999998 0.4445567203
0.029684578400000383 -0.29179206299999993 0.4476731606
0.029691952699999913 -0.2916421752999998 0.4482391712
0.029736943300000096 -0.2909740277999999 0.4494919892
0.02991048329999968 -0.28865225799999994 0.4525795549
0.0299180157000003 -0.2881712084000001 0.4533136825
0.029951845399999844 -0.28817715899999996 0.4536453492
0.030093545700000224 -0.28693757789999985 0.45565220640000004
0.03028878749999997 -0.28512543180000005 0.4581199909
0.030517689299999873 -0.28427675779999984 0.4590949148
0.030631611000000003 -0.28457186330000006 0.4591315106
0.03087230169999966 -0.28388516100000016 0.4606197171
0.030953394300000436 -0.28101472569999997 0.4640560559
0.03126761779999976 -0.28130867849999985 0.4641028319
0.03154327399999968 -0.28111928829999977 0.46479786200000006
0.031885239000000176 -0.27965145039999983 0.4673939369
0.03205522400000005 -0.2782100889000003 0.4688151412
0.032191081699999735 -0.27860357570000005 0.46843242259999995
0.03241206380000028 -0.278734869 0.4691274526
0.03281882349999998 -0.2778216482000002 0.47174541699999994
0.033123919399999924 -0.2769652946000001 0.47263547130000005
0.03338078599999994 -0.27641318959999994 0.47341135700000003
0.033687974099999796 -0.27539188059999997 0.47565719689999997
0.03395246580000011 -0.27448505439999993 0.4767757121
0.034212840999999994 -0.27411685660000007 0.4767379027
0.034510469900000285 -0.27386057389999996 0.4777927463
0.034894697899999993 -0.27284390290000005 0.4802101514
0.035249765900000174 -0.2717997592999999 0.48159770339999997
0.035497595699999884 -0.2715081523 0.4813833007
0.03584831620000006 -0.2710116118000001 0.4828946415
0.03624300590000029 -0.2702073802999996 0.4844739505
0.037524610099999745 -0.26929927880000015 0.48488011090000005
0.0377683149000001 -0.26906405180000004 0.48600715959999996
0.03809625900000002 -0.26813120759999975 0.4882643499
0.038377022300000174 -0.26717000290000037 0.48957400640000004
0.03861311399999989 -0.26695142280000006 0.48932514689999995
0.038949374400000014 -0.2665545061999999 0.4906512182
0.03934673720000026 -0.2658310502000001 0.49219362450000004
0.03968512739999985 -0.2653761856000001 0.49266461419999996
0.0400849872000002 -0.26503732400000013 0.49344223239999996
0.04053573410000011 -0.26425329919999996 0.49531490970000003
0.04094543840000009 -0.2634603208999997 0.4964742155
0.04152506070000017 -0.2625688207000003 0.497344891
0.04191868990000014 -0.26232176760000003 0.49810200950000005
0.042639448699999694 -0.26127833859999994 0.4994720589
0.043056249499999755 -0.2606799662000001 0.5006660983
0.04340292049999972 -0.260456295 0.5013806455
0.04411480439999993 -0.2601546975 0.5019240398
0.04522492229999964 -0.2592551944000001 0.5031311502
0.04551551349999983 -0.2589943681000002 0.5042702182000001
0.04589596340000002 -0.2586843727999999 0.5050089593
0.04630668240000002 -0.2583896779999999 0.5056788297
0.046707383199999786 -0.25791988450000014 0.5067957137
0.04711454900000023 -0.2572846308000001 0.5082080843
0.04759317679999997 -0.2567387889999999 0.5090434179000001
0.04807604890000006 -0.2564737465999998 0.5093263759
0.04851632919999993 -0.25617280099999995 0.5101251436
0.04900408260000022 -0.25565467259999997 0.5114289993
0.04955447270000013 -0.2551471421999998 0.5123089554
0.05013443140000007 -0.25487065929999986 0.5126392843
0.050842551600000174 -0.25437338769999984 0.5134415705
0.05151168429999986 -0.25368019470000025 0.5147250184000001
0.05198308320000011 -0.25338923840000005 0.5155076874
0.05248397809999972 -0.2532295376000002 0.5157983688
0.05320466630000009 -0.2527302514999996 0.516748619
0.053889260800000116 -0.2519300633000001 0.5182305325
0.054356968600000055 -0.25165533559999975 0.5189150626
0.054857037200000125 -0.2515609177 0.5190372132000001
0.055579170400000155 -0.2512110707999997 0.5198085767
0.05627675969999979 -0.25044108020000033 0.521284039
0.057105944199999925 -0.2498107199999997 0.5221048203
0.05752114830000021 -0.2499191569999999 0.5220098068
0.05834710320000003 -0.24951034210000023 0.5229845645
0.05907319659999999 -0.24892885509999996 0.5239950619
0.05974113770000011 -0.24886685079999982 0.5242177906000001
0.06034725239999972 -0.2486379232 0.5248841294
0.06094061009999985 -0.24796019990000007 0.5260531710999999
0.06162681110000001 -0.24736736430000006 0.5270232196
0.06232271559999969 -0.24730293479999998 0.5272224068
0.0629087385 -0.24731719310000022 0.5274724242
0.06336332899999997 -0.24694550419999972 0.528442893
0.06398862289999974 -0.24632407550000002 0.5295235308
0.06471672520000027 -0.24614060199999965 0.5297582228
0.06514486819999998 -0.24620595280000002 0.5298362751
0.0657333589000002 -0.24583395600000024 0.5307988902
0.06649398039999976 -0.24530622820000003 0.5316746995
0.06699337879999989 -0.2451612873000002 0.5320603188
0.06810440129999984 -0.24492679360000036 0.5323399196
0.06847826680000013 -0.244743991 0.5330813968
0.06912415049999998 -0.24433962460000025 0.5340210160000001
0.06970875930000009 -0.24406339200000016 0.534362129
0.07017076779999964 -0.2439715330000003 0.5345109467
0.07071153749999981 -0.24373949539999984 0.5352183515
0.07144757450000006 -0.2433265203999997 0.5361202151
0.07343740999999993 -0.24260966900000014 0.5365184286
0.07369134330000016 -0.2427045886000001 0.5365753451999999
0.07411883769999994 -0.24251233699999997 0.537316068
0.07464761850000023 -0.24224302450000001 0.5378901252
0.07508838249999972 -0.24216664420000011 0.5378895275
0.07568191020000015 -0.24196409099999983 0.5385405364
0.07635356049999986 -0.2415732813 0.5394122128
0.0769726502000001 -0.24123309059999976 0.5398684717
0.07751428190000009 -0.24115727909999984 0.5398005303
0.07815873840000043 -0.24100821680000006 0.5402117129
0.07889160989999988 -0.24062355920000034 0.5411153903
0.07955500289999984 -0.24031049719999986 0.5415032353
0.08011665790000011 -0.24030946759999994 0.5412249717
0.08083974979999997 -0.24010554110000015 0.5419062385
0.08155994919999987 -0.23974193270000033 0.5426020089
0.08216298170000025 -0.23960884910000013 0.5425762377000001
0.08284282179999991 -0.23951131050000019 0.5427758586
0.08364292620000002 -0.2391408572999998 0.5435890269
0.08434695469999998 -0.23873329860000014 0.5441878613
0.08496877769999989 -0.2386060790000002 0.5441063196
0.08566843070000019 -0.2385518299 0.5441450859
0.08644851200000003 -0.23827214649999995 0.5448064649000001
0.08744285429999987 -0.23770287069999974 0.5454810327
0.08798006899999988 -0.23765049100000013 0.5454188553
0.08866003189999994 -0.23756588320000027 0.5455700464
0.08968071720000026 -0.23726011930000013 0.5459541942
0.09019292310000004 -0.2371045554000002 0.5463059754
0.09114239140000002 -0.23688491420000002 0.5464627218
0.09177267209999984 -0.23676088930000017 0.546549267
0.0923964343999999 -0.2365936005 0.5467968912
0.09318057250000011 -0.23632126960000033 0.5472408415
0.09379827529999973 -0.23617323579999994 0.5474415043
0.09481187869999985 -0.2359764191 0.5474611971000001
0.09533395869999994 -0.23587980159999988 0.547568361
