-0.10805428699999986 -0.30919348570000027 0.4322121294999999
-0.11688836810000014 -0.3030772879999999 0.43618621090000076
-0.1169660415 -0.30294187740000034 0.43644969330000016
-0.11691600749999997 -0.30269558399999985 0.4369217134999994
-0.11688689709999966 -0.30138816970000004 0.4387883279000002
-0.11688644849999985 -0.30054973380000005 0.4400914273999996
-0.11713401439999993 -0.29984296870000016 0.4409423825000003
-0.11724999749999965 -0.2991898419000001 0.4418283467000004
-0.11738605449999984 -0.2982995527000001 0.4430577727999996
-0.11750827909999995 -0.2971772203999996 0.4446415136999997
-0.11785210730000006 -0.29619469669999976 0.4457304858000004
-0.1181235785000001 -0.2953938858999998 0.44672378239999944
-0.11840244199999983 -0.2944147205000003 0.4480055745999998
-0.11865726640000007 -0.29316330140000035 0.4496269948
-0.11908079599999999 -0.29197922809999977 0.45097635699999916
-0.11956249149999998 -0.2912631204 0.4515932457999998
-0.11990107739999978 -0.29047859340000004 0.45262418599999954
-0.12017961160000024 -0.28936152780000013 0.4540724528000002
-0.1206568884000001 -0.2882152333999999 0.4553271321999999
-0.12104577729999999 -0.28721237199999994 0.45644257639999974
-0.12142332680000001 -0.2861989361999999 0.45764138170000024
-0.1217352826 -0.28497058509999995 0.4591608139000005
-0.1221961665000002 -0.2838430019000002 0.46035385869999956
-0.1225319489000003 -0.28297626760000005 0.46125752549999977
-0.12281877559999987 -0.2820355403999999 0.4624212730999995
-0.12301113339999992 -0.28068842550000017 0.46416143789999964
-0.12347065430000015 -0.2794934857999998 0.4653819399000003
-0.1285655993999999 -0.2751942301999999 0.46771229179999985
-0.12840020640000027 -0.2747707315000003 0.4685183335000005
-0.12814776839999986 -0.27394787089999983 0.46984870030000003
-0.12806061089999998 -0.2731826049000001 0.4708250298999994
-0.12784838330000037 -0.2726796749 0.47152469599999947
-0.12760212809999993 -0.27201652150000033 0.4726021180000002
-0.12734946660000013 -0.27105366759999994 0.4740559458
-0.12963772760000003 -0.2679945264999999 0.47623499139999925
-0.12945707760000014 -0.26778310120000004 0.4766894070999994
-0.12915966989999994 -0.2672345843999997 0.4776639560999998
-0.1287528984999997 -0.26633759680000013 0.47912809550000013
-0.12859904859999993 -0.2654869726000002 0.4802080097000001
-0.12832462850000015 -0.26482422559999996 0.48113461910000055
-0.12802455719999983 -0.2640895955999998 0.48226807619999956
-0.12769897519999995 -0.2631243995000001 0.48371095810000053
-0.12759587900000025 -0.2622640424 0.4847482837000001
-0.12747490510000015 -0.2611503192000004 0.4859476102000002
-0.12741527509999973 -0.26025033780000006 0.4870909404999999
-0.1272411084999998 -0.25959881090000003 0.4881740300999997
-0.12725812439999995 -0.2587853563000002 0.48919501119999964
-0.12716736270000029 -0.2578215507999997 0.49021429259999927
-0.12699921839999995 -0.2572343937000001 0.49116078139999964
-0.126769688 -0.25637319780000034 0.4924061159999997
-0.12675557790000003 -0.2550944804000004 0.49373756600000007
-0.12662155860000013 -0.2542936616999998 0.49470258739999995
-0.12643287959999983 -0.2537264025999999 0.4956442754000001
-0.1261509837000001 -0.25285629880000027 0.4969010495999999
-0.12605379380000015 -0.25203791539999987 0.49785820059999963
-0.12584255950000012 -0.2510188212000002 0.4989515209000004
-0.12563122479999977 -0.25056620549999975 0.4997673843000001
-0.12533739070000038 -0.2497816837000002 0.5009393640999997
-0.1251834192000003 -0.24899678199999986 0.5019067048000005
-0.12489021960000013 -0.24810329060000003 0.5028530620999998
-0.12465971369999984 -0.24764879979999987 0.5037203974999995
-0.12437360530000019 -0.24688860950000002 0.5048267793000001
-0.12422771949999989 -0.24621371569999972 0.5056329022999995
-0.1237619982 -0.24518110839999974 0.5069185503
-0.12339179280000012 -0.24458559179999995 0.5079748556000006
-0.12301230429999999 -0.24374578920000012 0.5091757082999999
-0.12282387449999987 -0.24303667499999992 0.5100089467000002
-0.12234680320000013 -0.2422467615999997 0.5109470878
-0.12196903840000006 -0.24131956449999992 0.5121660018999998
-0.12163777379999985 -0.2402697919000003 0.5134842070999994
-0.12159007910000019 -0.23979929450000004 0.5141004466999997
-0.12132958399999971 -0.23959458700000003 0.5144636609000006
-0.12089637690000021 -0.2389083017 0.5155262303999999
-0.1202810215000003 -0.23782884839999996 0.5169958205
-0.12007249610000015 -0.2373613297999997 0.5176673027000005
-0.11971766989999999 -0.2370984851000002 0.5181427264999998
-0.1193265312999996 -0.2367695476999998 0.5188892237999996
-0.11870526030000006 -0.2357050799999998 0.5202868138000003
-0.11832356320000015 -0.23521678010000002 0.5210011857000003
-0.11784556720000028 -0.23494556460000027 0.5215031408000002
-0.1174126406 -0.2346500237 0.5222043712
-0.11695879750000016 -0.23408039690000004 0.5231541579999996
-0.11650885209999995 -0.23324851299999994 0.5241715854000004
-0.11615794520000033 -0.23309637989999965 0.5244638977999996
-0.11567331079999965 -0.23275229559999966 0.5252811587999995
-0.1151976378999997 -0.23218319340000004 0.5261590118999999
-0.11486602889999986 -0.2317582208000002 0.5267292993000003
-0.11434246800000025 -0.2313932297000001 0.5274096333000005
-0.11379188379999983 -0.2308492005999998 0.5283723855
-0.11325543260000037 -0.23018517370000025 0.5293771820000002
-0.11287762410000024 -0.22969625299999974 0.5299829925999999
-0.11235538589999994 -0.2293865210999999 0.5305572668000007
-0.11181671550000027 -0.22899387540000005 0.5312928717999998
-0.1113641835000001 -0.22850911530000007 0.5320917862999996
-0.11091680460000042 -0.22810262969999995 0.5327048886000005
-0.11034759460000032 -0.2277935954000001 0.5332273938999998
-0.10978375779999983 -0.2273972850999999 0.5339634109000002
-0.1091159569000002 -0.22658012880000022 0.5351296910999999
-0.10875342440000013 -0.22638709729999995 0.5355291247
-0.10826923999999982 -0.2261842702000001 0.5359387818999997
-0.10734071509999987 -0.22538077540000012 0.5371069472999999
-0.10687765430000029 -0.2251544551000002 0.5376278920999997
-0.10662120990000012 -0.22510534290000006 0.5378221954000004
-0.10618233390000009 -0.22503847880000016 0.5380934747000001
-0.10569370389999966 -0.2247368635 0.5388033308000004
-0.10507042149999979 -0.22403522910000007 0.5397214724999992
-0.10472115399999993 -0.22389699740000024 0.5400193368999995
-0.1042561663999999 -0.2238053178999997 0.5402783934000004
-0.10337255070000007 -0.22319860190000007 0.5412774787999997
-0.10288223490000004 -0.22283838539999978 0.5419583566999995
-0.10260705250000024 -0.22274861710000016 0.5422010526999994
-0.10218742559999994 -0.2226805571999999 0.5424412800000002
-0.10151556480000012 -0.22215280479999988 0.5432655742000003
-0.1009358578999997 -0.22162259829999975 0.5441264489000002
-0.10062073709999986 -0.2215275274999997 0.5443349927999996
-0.10021903649999997 -0.22154317870000018 0.5443807934000002
-0.09973409490000007 -0.22137291690000005 0.5449139111000001
-0.09906772489999982 -0.22075532230000006 0.5458036260000005
-0.09872346999999992 -0.22066747409999987 0.5460203871000004
-0.09830693049999972 -0.2206619423999996 0.5461200441000003
-0.09759619730000013 -0.22027006240000002 0.5468452235000001
-0.09718859610000008 -0.22005693080000022 0.5473602117
-0.09642150290000018 -0.21991999930000006 0.5476919555000004
-0.09583406510000003 -0.2201623859999997 0.5475678694999999
-0.09536145479999991 -0.2197799842000001 0.5482423288000007
-0.0947309314 -0.21930991219999996 0.5489738368000001
-0.09432085079999997 -0.2194256163999997 0.5490175311000005
-0.0939565644 -0.21943103190000013 0.5490703687000007
-0.09344299769999997 -0.21900001040000028 0.5497839908
-0.0929610142999997 -0.21857582880000015 0.5504308531
-0.09256430410000016 -0.21857876480000016 0.5505078266999996
-0.09213728109999986 -0.21865530690000012 0.5505089051000001
-0.09176023729999994 -0.2185121726000001 0.5509656661999998
-0.09137725489999982 -0.2181290197000001 0.5515855606000004
-0.09106926599999987 -0.21792320090000006 0.5517325423999999
-0.09050218440000002 -0.21799791449999972 0.5517157797000003
-0.0900572758 -0.21784883479999984 0.5522031279000004
-0.08968277219999976 -0.21754226629999973 0.5526361664000001
-0.08938652520000012 -0.21745314300000018 0.5526733799999999
-0.08902279040000005 -0.21759048930000002 0.5524933935000007
-0.08853852530000017 -0.21751053900000006 0.5529489766999998
-0.08813210509999969 -0.2172079386000001 0.5534393756
-0.08780547149999984 -0.21707836439999983 0.5535308618999997
-0.0873993274 -0.21712398649999987 0.5535021941
-0.08692154600000013 -0.21699285020000003 0.5539272897999998
-0.08650173760000035 -0.21670843600000023 0.5543908701999998
-0.08616951909999981 -0.21661186519999998 0.5544261256
-0.08577531019999984 -0.2166892710999999 0.5543272771000005
-0.08530069309999977 -0.21661236550000007 0.5546991111999997
-0.08488782230000025 -0.21636767619999997 0.5551056151999996
-0.0845731491999997 -0.2162997592 0.5550818154000003
-0.08419996779999961 -0.2164408508000002 0.5548949636999998
-0.0837385204000003 -0.21640887330000025 0.5552267556000006
-0.08334021749999998 -0.2161797913000001 0.5556035120000002
-0.08302831859999982 -0.21611489370000037 0.5555791911000005
-0.08265485009999995 -0.21623858050000022 0.5554160710999998
-0.08221532999999992 -0.21620560280000012 0.5556950941999999
-0.08181662090000019 -0.21599983280000012 0.5560414897000001
-0.08150968079999998 -0.21594687960000014 0.5559967153
-0.08116059070000015 -0.2161004633000001 0.5557587524000001
-0.08072843570000021 -0.21611302350000017 0.5559832630999999
-0.08032973180000003 -0.21590649359999992 0.5563557189999999
-0.08002259369999987 -0.21586464920000026 0.5562654333999992
-0.0796591702999998 -0.21594327769999966 0.5561995485999995
-0.07920031929999993 -0.2157822302000003 0.5566667367999996
-0.07888968200000024 -0.21569663259999983 0.5565794182000001
-0.07859456070000004 -0.21585368529999993 0.5563395589000004
-0.07819509249999967 -0.21589788100000007 0.5564647001999994
-0.07782403389999981 -0.21579606480000013 0.5566412527999995
-0.07757554399999966 -0.2158854309999998 0.5563308213999996
-0.07725601100000024 -0.21605635140000023 0.5562332840000002
-0.07687682270000007 -0.21608613059999993 0.5562991502999992
-0.07651803979999983 -0.21600484329999992 0.5564132058999993
-0.07623806440000003 -0.21603927310000026 0.5562782890999998
-0.07596279360000002 -0.21620154719999984 0.5560857425000005
-0.07540373130000022 -0.21628732410000007 0.5561132205000003
-0.07510991160000025 -0.2162797822 0.5561458957000003
-0.0747357663999999 -0.2164370805 0.5559434420999994
-0.07448358079999995 -0.2165437817 0.5558034343999996
-0.07397027599999983 -0.21656682080000023 0.5558216965999998
-0.0735127107000002 -0.21642868469999987 0.5560192805999993
-0.07319485079999977 -0.21658701000000002 0.5558091710000008
-0.07300646739999994 -0.2167564804000004 0.5555200799
-0.0725650199000003 -0.21692678040000013 0.5553781899999999
-0.07203333180000016 -0.2167304898000002 0.5556745701999999
-0.07186074949999988 -0.21683693230000012 0.5554364327000005
-0.07154895780000015 -0.21714285470000005 0.5551058531000006
-0.07038532390000007 -0.21733148959999982 0.5551569198999999
-0.07027113680000019 -0.2173246672000002 0.5550977169999998
-0.07020039090000019 -0.2174700089999999 0.5547166892000002
-0.07008604139999974 -0.21774571050000002 0.5543144712999997
-0.06981499330000007 -0.21782887130000006 0.5542985661
-0.06961170800000005 -0.21775044580000014 0.5543516914
-0.06944508940000027 -0.21780954630000027 0.5540999040000001
-0.06924440359999995 -0.21802370659999992 0.5537034553
-0.0688765065000001 -0.21818120520000006 0.5536131477999993
-0.06858857769999993 -0.21812049979999992 0.5536984196999999
-0.06834759349999997 -0.21835433290000017 0.5532928924
-0.06819362169999987 -0.21863909290000016 0.5527699052999999
-0.06792393720000023 -0.21875118340000022 0.5527615102000007
-0.06759655910000006 -0.21866884309999968 0.5528040918999997
-0.06733702799999985 -0.2191215314999999 0.5521286224000006
-0.06714630799999988 -0.2192893000999998 0.5519049886000005
-0.0668603608999998 -0.21922623249999962 0.5520667717999999
-0.0665143824000003 -0.21913176830000003 0.5520242695000004
-0.06636776880000017 -0.21939952899999993 0.5514262501999996
-0.06615521749999997 -0.21974761149999988 0.5510404319000006
-0.06585552200000011 -0.21979286359999994 0.5511037980000006
-0.06549293439999992 -0.21974343949999975 0.5510447163999999
-0.06516501479999981 -0.22045597649999982 0.5501603889000002
-0.0646758366000002 -0.2209710426 0.5496474348999998
-0.06414435760000003 -0.2208526396999999 0.5497755481000004
-0.06398361279999998 -0.22082259199999976 0.5497097313000001
-0.06383651810000002 -0.22128849719999977 0.5489947571
-0.06358844079999981 -0.2216856706999999 0.5485516840000004
-0.0633122144999998 -0.22165562130000005 0.5485121073999997
-0.06313456090000003 -0.2216491903000004 0.5484048896000004
-0.06301029069999986 -0.2218666061000003 0.5479076234000004
-0.06276762590000029 -0.2225403453000001 0.5471361740000003
-0.06244627289999993 -0.22259950679999996 0.5470818077999997
-0.06225936440000002 -0.2226340550999999 0.5469390459000003
-0.0621297687000002 -0.22292538080000002 0.5463389252999997
-0.06191040530000036 -0.22323638509999988 0.5459684097999995
-0.061598653399999925 -0.22326517559999992 0.5459873586000006
-0.06138771769999973 -0.22327951199999996 0.5458169891999995
-0.06111780049999993 -0.2239885064 0.5448634229999998
-0.0609423307000001 -0.2242987422999998 0.5444093515000006
-0.06049792130000009 -0.22432583559999975 0.5444370612
-0.06032133099999992 -0.22448704249999984 0.5440759104000001
-0.05998865009999976 -0.22503566029999966 0.5434157340999999
-0.05974413519999988 -0.22515987420000005 0.5432449953000003
-0.05939164139999997 -0.22544067400000012 0.5428236801999997
-0.0592588754000003 -0.22572584949999985 0.5423066089999997
-0.058970911699999906 -0.22642923979999985 0.5415039676999998
-0.05871908999999986 -0.22654273699999994 0.5413777437
-0.058337551000000154 -0.22671252539999998 0.5410786507999994
-0.058053815000000064 -0.2271537163999997 0.5404967223999995
-0.057783536200000096 -0.22773164339999985 0.5397590423
-0.05746210600000001 -0.22803973909999975 0.5393811403999997
-0.05712870620000032 -0.22812658709999978 0.5392227738999997
-0.056867823300000175 -0.22846167299999998 0.5387422883000008
-0.05675029279999988 -0.2288648043000001 0.538025448
-0.05641421350000009 -0.2294688786000001 0.5374209556
-0.056143950899999684 -0.22946348730000032 0.5374391139000005
-0.0558422717 -0.22960176499999996 0.5371255617999999
-0.05569075680000024 -0.22998141249999993 0.5364394090999998
-0.05544415540000003 -0.23040440699999998 0.5359490363999999
-0.05515725199999988 -0.23059779619999965 0.5357218144999996
-0.05495882640000005 -0.23081995210000006 0.5353153513000004
-0.05478222310000014 -0.23134949110000003 0.5344817793000001
-0.054525150299999936 -0.23192170840000026 0.5338181529999995
-0.05357331739999971 -0.2324595615999998 0.5334745781999999
-0.052803743399999714 -0.23299364820000035 0.5329540572999996
-0.05275882640000029 -0.2333512174000001 0.5322476717000004
-0.05260336170000013 -0.23381671390000003 0.531652781
-0.05236325909999984 -0.23400327369999996 0.5314607592999998
-0.052221413199999844 -0.23417595099999966 0.5311024218
-0.05207721139999988 -0.2346478155999998 0.5303422859999998
-0.051855448900000045 -0.2351393540000002 0.5297584505000001
-0.051564414199999575 -0.23534750289999984 0.5295480626
-0.05138407459999961 -0.23565756519999992 0.5289978086000007
-0.051197673199999905 -0.23629233160000007 0.5280706875999996
-0.05093373010000013 -0.23692858790000004 0.5273596608000002
-0.050583275300000174 -0.23714227440000002 0.5272226408999998
-0.05037027430000007 -0.23741386729999991 0.5267258043999998
-0.05012403009999966 -0.23793931930000012 0.5259846601999998
-0.049801059400000014 -0.2384450843999999 0.5254052520999997
-0.04949443900000006 -0.23883645310000023 0.5249147634
-0.04822668369999983 -0.24010955780000032 0.5238078493999998
-0.04790861280000014 -0.24096622119999989 0.5228060411
-0.04751738769999969 -0.24122891970000016 0.5224449392999997
-0.04714833400000007 -0.24123893340000002 0.5223682925000004
-0.0469176012000001 -0.24178861409999985 0.5216670558000001
-0.04673824129999993 -0.24281730590000006 0.5204352590000001
-0.046400897299999855 -0.24310470090000003 0.5200716334999997
-0.046059964199999914 -0.24313369250000028 0.5199629134999997
-0.0458329862000002 -0.24367206940000008 0.5192365983
-0.0455642784000001 -0.2443849414999999 0.5183709402999996
-0.04521223289999998 -0.24472914889999986 0.5179663252000006
-0.044810773100000034 -0.24482295690000022 0.5178229379999992
-0.044657045399999706 -0.24516100359999982 0.5172513011
-0.044316920900000056 -0.24622682770000015 0.5160497002
-0.043943726400000216 -0.24671817250000005 0.5155099670999999
-0.043669390199999825 -0.24685143929999986 0.5153198957000003
-0.04348802770000004 -0.2472081853999999 0.5147240162999998
-0.04310301470000022 -0.24829911179999975 0.5135035451999999
-0.042830059500000406 -0.24866353250000017 0.5130754045999995
-0.04250816819999992 -0.24888439080000024 0.5127924523999994
-0.042272306500000134 -0.24930781559999993 0.5121711778
-0.042018177300000126 -0.2500451719000001 0.5111900202999999
-0.04166702460000016 -0.2506657362000002 0.5105565709000004
-0.041277159999999924 -0.25087379369999985 0.5103852905000004
-0.04101852099999981 -0.2511994146000003 0.5098725496000007
-0.040734711499999854 -0.25191482529999965 0.5089099049000003
-0.040357175400000056 -0.2526200897999997 0.5081565357000004
-0.039711264500000176 -0.2529731449999999 0.5078833056000001
-0.03945483749999967 -0.2534165988999999 0.5072506024000001
-0.03911420129999987 -0.25401581370000015 0.5065296548999996
-0.03871477160000003 -0.25444858700000017 0.5060865566000006
-0.038383457900000195 -0.2548835716000002 0.5054999381999998
-0.038127289299999756 -0.2556178774000002 0.5045421606999998
-0.03777090040000042 -0.25637980989999987 0.5037213098000004
-0.037348534200000394 -0.25679237190000004 0.5033552757999997
-0.03696783310000029 -0.2570494086999999 0.5030247688000005
-0.036726580999999925 -0.2577001311 0.5020697454
-0.036306030200000006 -0.2583982183 0.5013720241000001
-0.03591111080000031 -0.25891237749999974 0.5008111876999992
-0.035589869000000274 -0.25947463729999987 0.5000779700999995
-0.035206006400000156 -0.2600646204000001 0.49944108149999966
-0.034758791400000266 -0.2605313587000002 0.49896623019999975
-0.034384940500000294 -0.2609806712 0.49839275290000007
-0.03402996250000001 -0.2615638002999998 0.4976543067000003
-0.033668345500000196 -0.26237595280000026 0.4967109972000001
-0.033191535400000305 -0.26290688789999983 0.4962646199999998
-0.03279386579999999 -0.26328396190000003 0.49577017540000057
-0.03244973729999989 -0.2638855327999998 0.49500842590000005
-0.03201709869999991 -0.2644986714999997 0.4943765876999997
-0.03152607780000016 -0.2648159795999998 0.4941162226999998
-0.03116393329999978 -0.26527935000000014 0.49345092290000014
-0.030796074499999992 -0.2660191382999999 0.4925395674999997
-0.030329269799999725 -0.2666373867999998 0.4919998320000003
-0.027824818300000054 -0.2676771053000002 0.4912809411000003
-0.027727192199999973 -0.26804817719999985 0.49064460129999965
-0.027663700300000205 -0.2688549485 0.48951617180000007
-0.02737535929999968 -0.2693580149999999 0.48917079220000037
-0.027172869199999727 -0.2697031566000003 0.4887086320999998
-0.027006997700000035 -0.27029927779999996 0.4878650153000006
-0.02675056730000014 -0.2709409241999996 0.48715158529999947
-0.02637179490000019 -0.2712682071999999 0.4869828435999999
-0.02605286249999983 -0.2715566920999999 0.48655373889999964
-0.025769474300000095 -0.27216173749999983 0.4856638643999993
-0.025421069700000132 -0.27286305320000004 0.48490575709999995
-0.02498993770000002 -0.2733171403000001 0.48456792259999926
-0.024606145499999954 -0.2736919806999998 0.48406958330000016
-0.02403425970000006 -0.27483541779999987 0.48262305379999937
-0.02366978909999995 -0.2752601296999999 0.48225249649999924
-0.02323111620000029 -0.2755730918000001 0.4820526946000001
-0.022836154199999736 -0.27593023669999983 0.4815248768
-0.02245489470000006 -0.2764701798 0.4808381821000003
-0.022032920300000036 -0.27701889200000007 0.48031193110000014
-0.021598088900000256 -0.2775062865 0.4798885873999996
-0.021154094399999934 -0.2779296562 0.47935522029999955
-0.02075839619999975 -0.27850218510000024 0.4785680226000002
-0.020385499199999657 -0.2792366726000002 0.4777247099999995
-0.019906508199999617 -0.2797895667999999 0.4772897987000002
-0.018647801399999775 -0.2804239130999999 0.47668017359999926
-0.017784791199999983 -0.28155087709999993 0.4753312590000007
-0.017525057200000305 -0.2818767277000003 0.47498030370000066
-0.016982884799999987 -0.28222348250000007 0.4747827164
-0.01628287610000001 -0.28245719950000003 0.4744728449000002
-0.01603554890000014 -0.2829353189999999 0.47382745849999974
-0.01570459210000008 -0.28348692200000025 0.4732439712999996
-0.015339999400000082 -0.2838749382999999 0.47285546570000037
-0.014845757999999876 -0.2844865620999997 0.47211375509999964
-0.014589923700000007 -0.2850817575 0.4713081655
-0.014212054300000165 -0.28564583929999987 0.4707922181000006
-0.0133361218000001 -0.2858646516000003 0.4707884609999997
-0.012568253099999982 -0.2865425148999998 0.4699811289999998
-0.012355578900000275 -0.28722490119999966 0.4689503779999997
-0.011845300800000125 -0.28809242459999984 0.4681463514999997
-0.011104579900000022 -0.28807997200000024 0.4683699274999995
-0.010426983699999948 -0.2885806702 0.46772870469999983
-0.010245416300000088 -0.28929480200000013 0.4666194749999999
-0.009882737699999922 -0.28988158760000005 0.46614676210000017
-0.009397495900000052 -0.29031915559999977 0.4657868647000001
-0.008926079800000153 -0.29087133760000006 0.4650609476999996
-0.008645965499999964 -0.29142871579999996 0.46427506300000054
-0.008271818499999917 -0.2919263794 0.4638695501999992
-0.007629128400000074 -0.2920969234000004 0.4639424625000004
-0.007277976599999736 -0.29240553589999996 0.4634324138999997
-0.006901907500000082 -0.29300576509999976 0.46262350519999984
-0.006478054700000069 -0.2935077199 0.4622068395000003
-0.00602041919999996 -0.29384674040000025 0.4619427354000001
-0.005373351400000281 -0.2945044401999999 0.46112173459999983
-0.0049981855999998714 -0.29507433410000017 0.4603185291999994
-0.0045350333000002685 -0.29554740609999985 0.45992119040000023
-0.0035072015000001677 -0.29589661759999997 0.4597239382999998
-0.001172786099999712 -0.29690016539999986 0.4585554342
-0.0009373072000000704 -0.29750720649999973 0.4578751258000002
-0.0007071430999996409 -0.29772345960000024 0.45772907230000026
-0.00041405949999973046 -0.29772701940000035 0.4578668515000004
-6.476680000000457e-05 -0.2982622895999998 0.4570956640999997
0.00021875269999993563 -0.29876809200000043 0.45643379430000053
0.0006988047000002773 -0.29943004480000024 0.4558230977000006
0.0010887334000000415 -0.29955124620000007 0.45579355389999954
0.0014218916999997333 -0.29985803600000027 0.4552785434000004
0.0017890465999998995 -0.30046007269999997 0.4544930422000002
0.002219435799999836 -0.30091713460000014 0.4541219713999993
0.0027121149000000067 -0.3010941086000001 0.4541043405999998
0.0031107682000000025 -0.30144253799999987 0.4535153858000003
0.0035640473999998257 -0.3021262124999997 0.4526190685999998
0.004074180099999936 -0.30263493929999985 0.45220119120000035
0.004651872400000201 -0.3028217434 0.4522030961999999
0.005124180600000194 -0.30314701090000007 0.45165459040000044
0.005651132400000147 -0.30375681099999996 0.4508802047999998
0.006213054699999887 -0.3042518082000001 0.4504437717000007
0.006857945800000209 -0.3044418847000001 0.4504393472999997
0.007377076899999668 -0.30482602550000015 0.4498108518000006
0.007968964799999867 -0.30545200390000016 0.44904235509999957
0.00857963719999999 -0.30588557100000013 0.44869667349999975
0.009251015099999815 -0.30609074309999995 0.4486108584999995
0.009824714399999657 -0.3064521021000002 0.4480075244999995
0.010442150400000294 -0.30705306389999976 0.4472480867999993
0.011093670000000166 -0.3074802308 0.4469143510000002
0.011804364299999648 -0.30763645770000014 0.44693689300000017
0.01241241620000011 -0.3079748896000001 0.4463522824999995
0.013075551300000043 -0.3085837369000002 0.44555909619999934
0.013755735200000174 -0.3090459300999999 0.44515422120000014
0.014507023000000174 -0.30922166829999975 0.4451758698999999
0.015156505999999847 -0.3095093594999998 0.4446467791999993
0.015851017000000134 -0.3100165318000001 0.44402505889999944
0.01659110020000032 -0.31042570629999977 0.4436405412000006
0.01737333519999984 -0.3105899299999999 0.44362418820000027
0.01806458579999992 -0.310891067 0.44310581530000004
0.018781945800000255 -0.31152476689999986 0.44222260740000063
0.019549612200000066 -0.3120050206 0.44178854040000015
0.02034942039999965 -0.31223322139999965 0.44167895170000016
0.021631075000000166 -0.3128208399000001 0.4408309801000003
0.02240510689999997 -0.3130656341 0.44059985400000024
0.02315371200000005 -0.3132699198000002 0.44047642610000004
0.02396883729999999 -0.3133472339000001 0.4405227568000001
0.025273942500000146 -0.3138699933 0.43970722819999963
0.026042211300000062 -0.3142330714999999 0.43919349079999925
0.02730546320000027 -0.31474866729999995 0.43870776470000017
0.02809023799999988 -0.3147466886000001 0.4388332458000006
0.03312387009999984 -0.3154932562999999 0.4375429226999996
0.033450249399999965 -0.3156998593 0.4372296890999996
0.03377886990000034 -0.3159021809999998 0.4370897952999995
0.03418465469999976 -0.31594211240000014 0.43721475079999994
0.03564610460000006 -0.3165059977000002 0.43630512909999997
0.03616426670000017 -0.3166705353000001 0.4360650932999999
0.03666970120000013 -0.31686116419999966 0.4359084468999992
0.03724887419999989 -0.31689573579999974 0.43601790519999994
0.037789659099999984 -0.3170822690999997 0.4355594071000004
0.038409400099999935 -0.3174701892999998 0.4350333866999998
0.04387035390000005 -0.3181517600000001 0.4339230329000001
0.044216440000000024 -0.31789717740000034 0.43445754960000027
0.045424604599999974 -0.31808542860000033 0.43394958090000024
0.04585321689999988 -0.3182096389 0.4337629846000004
0.0469718873999998 -0.3186718556999999 0.43318243449999994
0.0475236282 -0.3184855554000001 0.4334903135000001
0.04799465859999996 -0.31857300209999995 0.4331937027999997
0.049690349500000064 -0.31912954690000017 0.43247625929999955
0.05031201389999973 -0.3190709222999999 0.4325883226
0.05099519550000009 -0.3189256095000004 0.4328070256000007
0.0516340488 -0.31904674060000016 0.43242482560000006
0.053449959599999985 -0.3197402455999998 0.43141404150000007
0.05421867570000005 -0.3196216713000002 0.4316259414000001
0.05503856270000007 -0.31947675779999996 0.4318150063000008
0.0558582541999999 -0.31959183820000003 0.43136617509999997
0.05676841149999978 -0.3198714465000001 0.43091523170000023
0.05773061530000012 -0.31992959090000017 0.4309185553999999
0.0587217628000003 -0.3197854100999997 0.43114007709999935
0.059736527899999725 -0.31983495119999983 0.43074341770000046
0.060865705299999906 -0.32008055189999984 0.4302865532000002
0.062042987499999924 -0.3201009186000001 0.4302999630000004
0.06324441270000003 -0.3200341512000002 0.4302561020000004
0.06448122099999987 -0.32004757289999963 0.4299845849999997
0.06575705749999994 -0.3201142987000001 0.42980098109999965
0.06710953269999997 -0.3200651399000001 0.4297047966999994
0.08002233380000012 -0.31869311340000017 0.4288173454000006
0.08042998959999981 -0.3187269347999999 0.4285654064000006
0.08086525600000005 -0.31893257839999967 0.4282733742999998
0.08136333810000007 -0.31891758170000006 0.4283906060999998
0.08191384839999971 -0.3187012980999997 0.42867992259999976
0.08257812989999991 -0.3186614467000002 0.42842450539999977
0.08342006479999986 -0.3187397665999998 0.42821798359999974
0.08436251199999978 -0.3185746218000003 0.42844213950000043
0.08536909299999973 -0.31823963509999986 0.42874787459999997
0.08649899770000014 -0.31812625380000004 0.42843298319999956
0.08778781020000004 -0.31816904999999984 0.4281178578000002
0.08912593580000028 -0.3179286389999998 0.4283403663999996
0.09049732240000008 -0.3175628256999996 0.42852634099999953
0.09195097679999975 -0.3173088236999999 0.42838446910000005
0.09350211689999988 -0.31716193420000005 0.4282446420000001
0.09514097330000038 -0.31684744480000004 0.4283035155999997
0.09679089079999992 -0.31638155700000015 0.4285085919
0.09999533709999975 -0.31587318369999995 0.4281363247000005
0.10179201079999967 -0.3156473651999998 0.42787926319999947
0.10362155569999976 -0.3151874284999998 0.42809357299999995
0.10535384570000028 -0.31459332689999986 0.428403501
0.10875306709999988 -0.31412800520000017 0.4277544195999994
0.11060905370000018 -0.3136527413000003 0.42783795280000003
0.1123898576000002 -0.3128359614999998 0.42850246759999955
0.11563560560000008 -0.31148898130000013 0.4291022633999999
0.11929353330000003 -0.31100795999999997 0.42814197730000014
0.12113863469999986 -0.31042813920000034 0.42834423280000067
0.12289275470000005 -0.30972662110000027 0.42865490599999934
0.12629179530000023 -0.30895546350000025 0.4281612026000001
0.1281421775 -0.3082693794 0.4283793847999995
0.12990584669999983 -0.3074386643000002 0.4289394585999995
0.13329744429999968 -0.3061277388000003 0.4290843558000006
0.13526147470000005 -0.3054533160999999 0.42900950810000005
0.1372018708999998 -0.30472111869999985 0.42924016649999963
0.1390902758000001 -0.30386086479999985 0.4296093537000001
0.14105656899999985 -0.3030010009999997 0.42969724770000006
0.1431372193999998 -0.3022670585 0.4296330735999998
0.1452358923000001 -0.30140083340000023 0.42988503509999987
0.14729840690000007 -0.3003422861999998 0.43036412260000034
0.1494575952999999 -0.2992260847999999 0.4306393089
0.15374460910000032 -0.29753118710000015 0.43049596489999953
0.15606667100000005 -0.2965114298000002 0.4306385833000004
0.1582726887999999 -0.2953257548999999 0.43117674740000034
0.16235570760000018 -0.2931483063 0.4315510463999992
0.16664872470000036 -0.2913227672999996 0.43127835309999973
0.1688780124 -0.2902704304000001 0.4313396755000003
0.17257504700000004 -0.2880748100999999 0.4320401832999998
0.17797147479999964 -0.28494426419999996 0.4323954178999996
0.1816629744 -0.28327826799999967 0.4319868100000006
0.1850710015999999 -0.2816653836999996 0.43176735040000036
0.18789238279999987 -0.27956571240000017 0.43263755839999973
0.19212648620000028 -0.27663081459999983 0.4331245013
0.20643539430000013 -0.26877301079999993 0.4315410566000004
0.20783933129999976 -0.26798290329999963 0.4315017079999999
0.20852864959999984 -0.26683226289999995 0.4325668578999995
0.20953685379999998 -0.2654816096000001 0.4333611844000007
0.2119451568999997 -0.2640397250000004 0.43308643820000015
0.21374942029999966 -0.262905355 0.43305455540000004
0.2151084351999999 -0.2612612286 0.43410647900000043
0.21828137520000013 -0.2580698253000002 0.4350685474000002
0.22130286360000007 -0.2563287490999997 0.43448838459999983
0.2230844244000001 -0.2549073006000002 0.4347307913999998
0.2254278422999998 -0.25264424379999983 0.4353720513999999
0.22890607909999972 -0.2497524869000003 0.4354637920999993
0.23067618899999998 -0.24828479809999981 0.4356289738000001
0.23225414690000035 -0.24670788300000002 0.4361525760999996
0.2337413359 -0.24495817129999997 0.4368614782
0.2363837069999999 -0.24248172560000025 0.43705490309999995
0.2393146573 -0.24023114950000002 0.43677378300000047
0.2403219902 -0.23916402550000004 0.4371604133
0.24159211720000018 -0.23709945500000007 0.43832646700000044
0.24329407839999995 -0.23495400490000007 0.4389547386999997
0.2455524747000002 -0.23314066609999973 0.43866009949999984
0.24670776429999997 -0.23195103929999972 0.4389636543999993
0.2474981142999999 -0.23054035670000017 0.43999912499999994
0.24828231560000003 -0.2290661636000002 0.44075299190000017
0.2494443902000003 -0.22780807130000014 0.44084592420000046
0.25075024280000013 -0.22641716599999961 0.4411360669000004
0.2517543594 -0.2247673726999997 0.4421164257999992
0.25276455659999986 -0.22304970219999998 0.44282686920000014
0.25414096949999987 -0.22152042640000014 0.44290837889999946
0.25564036130000023 -0.2198679399000003 0.4431868139000006
0.25770198739999994 -0.2165026810999997 0.4445378383999996
0.26009347829999996 -0.2131249382 0.44522145380000033
0.26303442440000024 -0.21029735940000016 0.4447369197999995
0.2655678020000001 -0.20751342149999985 0.4447549382
0.2670087860999999 -0.2044863492000002 0.4461979181000002
0.2689211879000002 -0.2017601519000003 0.44652928290000027
0.2709224828000001 -0.1992694992999997 0.4466090476
0.2722729467999998 -0.19663842229999995 0.44761758470000057
0.2737343202 -0.19418029420000016 0.44813404250000044
0.27550280039999997 -0.19186861910000008 0.4481359704000001
0.27701330960000004 -0.18960166879999996 0.4484860384999996
0.27765474329999984 -0.1881621573000003 0.4491920758000001
0.27842180940000016 -0.1856650818000003 0.45039194340000055
0.28124817469999996 -0.18135560679999996 0.4504780968000004
0.2832581045999998 -0.1786464192999997 0.4503827048
0.2837319407000001 -0.17741070270000003 0.45105818140000054
0.2838601889999999 -0.17614347200000013 0.4520950979
0.28450670850000037 -0.1741113916999999 0.45278460160000034
0.28566467809999985 -0.17208436890000023 0.45305544200000014
0.2861553726999997 -0.17074842609999985 0.45371217539999975
0.2863233156999998 -0.16939215139999986 0.4547368079999998
0.2866736348000001 -0.1681109175000004 0.4552075974000003
0.28780129340000027 -0.16588775380000031 0.4555341944000002
0.28829232299999985 -0.1644221655 0.45624467809999913
0.28856344540000034 -0.1629749103 0.4570810423999996
0.28903166690000015 -0.1615782685 0.45743976129999986
0.2902702709999998 -0.1591455642999997 0.45768520109999944
0.29071885370000006 -0.15757940250000013 0.4584855499999998
0.2908150063999999 -0.15604053760000003 0.4595855595000007
0.29114052489999986 -0.1546005129000001 0.4600441860000002
0.29260170899999993 -0.15091112640000004 0.46062196889999996
0.29744387019999996 -0.13949178130000028 0.4611719465000004
0.2973349055000001 -0.1390529554000004 0.46181376440000044
0.29727899829999993 -0.13865945800000024 0.46222043699999915
0.2977281982000002 -0.13727225149999978 0.4625675440999997
0.29775985709999997 -0.1365628459999999 0.46319234060000003
0.29756859040000005 -0.13589591330000017 0.46395929719999973
0.2975428393999997 -0.1352162012 0.46440096129999997
0.29817541940000014 -0.13296443300000016 0.4648631689
0.29817361480000004 -0.13200624589999999 0.4656854842999998
0.2978317455999999 -0.13112656069999984 0.46676681040000023
0.29773128689999995 -0.13028689159999995 0.4672809101999995
0.2978627588 -0.12940136769999988 0.46774130489999965
0.2978790345000002 -0.12837531040000005 0.4684560696000002
0.2977488006 -0.12732844359999973 0.46926025560000006
0.2977890003999999 -0.12627017410000008 0.46976233420000035
0.29861763880000014 -0.1236655211000004 0.4700498911000004
0.29866002310000006 -0.12249320100000016 0.47078489509999955
0.2985557201 -0.1214677217000002 0.4715085781999999
0.2989147283999998 -0.11974079159999995 0.4718443077000005
0.2990297531999997 -0.11867976520000001 0.47240115179999975
0.2987319192000002 -0.11753507059999979 0.4734846631000007
0.29847432780000016 -0.11654791900000028 0.47428111049999977
0.29921292469999994 -0.11403936479999999 0.4743623211000001
0.2992488393000001 -0.11300043949999994 0.47499656369999954
0.29896494839999965 -0.11142320300000019 0.47602135540000035
0.29965519910000005 -0.10934865230000002 0.4760212089999998
0.2997120592 -0.10843072679999999 0.4765394543000001
0.2994103699999999 -0.10760738500000011 0.47745058309999955
0.2989311039999998 -0.10631132980000002 0.47848589720000057
0.29956307069999966 -0.10446810220000025 0.4784100928000008
0.29963426039999996 -0.10320984530000032 0.4789411592999997
0.2993616226000002 -0.10241782389999976 0.4798410986999997
0.29891535990000007 -0.10171111209999983 0.48072119800000035
0.29918040920000033 -0.09972177329999976 0.4809563345000001
0.2995082735999999 -0.09859075619999969 0.4810929661000003
0.29929295960000024 -0.09787175280000016 0.48189774679999964
0.29881252689999993 -0.09452468410000003 0.4833639092000004
0.29939661640000015 -0.09376022230000025 0.48300828730000056
0.299543066 -0.09331707270000011 0.4831379155000004
0.2987668393999998 -0.09229728710000007 0.4845042718999997
0.2987271997999996 -0.09122327220000015 0.4849242369000004
0.2988242730999997 -0.09062181570000005 0.48510079479999924
0.2986869538999999 -0.08986742750000021 0.48564733969999985
0.2983901807999998 -0.08895450890000012 0.48632688259999934
0.2983864375999996 -0.08822995549999968 0.4866077460999998
0.2985331683000001 -0.08772543820000012 0.48668946879999986
0.29849752989999967 -0.08688850859999997 0.4870911705000003
0.2980780193000001 -0.08610561900000002 0.4879018824000001
0.2978309509999999 -0.08526657539999993 0.4884549312000006
0.29801437099999983 -0.08474066670000013 0.4884525587999997
0.2980795314 -0.08409059460000012 0.48870440800000026
0.29728228329999995 -0.0829006498 0.4899902670999996
0.29715575130000005 -0.08228555009999994 0.4903966236000006
0.2972887781 -0.08178510760000002 0.4903778407999999
0.29732473049999975 -0.0810921951000001 0.49064261759999983
0.2966885467 -0.0801600963000002 0.49168564260000025
0.29633884600000027 -0.07919372189999985 0.4923339023000004
0.29661067390000007 -0.07866367540000008 0.49215647909999927
0.2967408172999999 -0.07795969689999982 0.4923039016000006
0.2966103110999998 -0.0773359423000004 0.4927230241
0.2964796323000001 -0.07675335269999994 0.4930390102999995
0.29640957440000015 -0.07615897490000023 0.49330945989999986
0.29627953809999985 -0.07547560330000014 0.49366906869999916
0.29586131879999966 -0.07211968010000014 0.4947497552
0.29585381649999976 -0.0717898185000001 0.49489476900000007
0.2962276558000001 -0.07137367500000025 0.4946105621000001
0.29614305080000003 -0.07096301410000017 0.49489531600000003
0.2958256469 -0.07061065929999977 0.49541590010000025
0.2955019151999996 -0.07005975950000032 0.49585896740000024
0.2955091428000003 -0.06959991870000026 0.49599248929999984
0.2953766496000001 -0.0690217916 0.49628696490000035
0.29502815410000016 -0.0684962765999999 0.4968386461000005
0.2946566783 -0.06771265410000016 0.4973579752999999
0.2949210723000002 -0.06647583130000001 0.49730366629999967
0.29485960720000026 -0.06546302639999979 0.4975229875
0.2944024705000001 -0.06496802860000006 0.4981446189999996
0.2942721731 -0.06440245370000008 0.49841192899999953
0.2945067307999998 -0.06365396850000016 0.4983020512000005
0.2944129150000001 -0.06292219909999996 0.4984782503999998
0.29413303459999973 -0.06252830980000024 0.49893404950000075
0.29382351910000004 -0.0621665428 0.49937611829999984
0.2938452306000001 -0.06132805629999982 0.4994419097999998
0.2936617450000001 -0.0607066930000002 0.4996744564000002
0.29334910380000023 -0.06012496250000021 0.5001112852999992
0.29329383420000044 -0.059504171800000005 0.5003107654000001
0.2932680017 -0.058743094899999626 0.5004069254000001
0.29297144789999985 -0.05725225119999999 0.5007960816000008
0.2928103542999998 -0.05699803579999996 0.5010544815999998
0.29271117830000026 -0.05672605060000002 0.5012589008999999
0.2926992653 -0.05636101310000008 0.5012863865000003
0.2924144044000001 -0.0555474868000001 0.5015438773999996
0.2920478247 -0.054896006599999936 0.5020008460000005
0.29203056400000005 -0.05426764549999996 0.5021667589999996
0.2921104094000002 -0.05367268540000003 0.5021055058000004
0.2918678658 -0.053027614799999956 0.5022786619000001
0.29148738139999963 -0.05244396380000005 0.5027206873000001
0.2914034662999998 -0.05177421379999991 0.5029737712999998
0.2914903168999996 -0.0512430975 0.5028873910999998
0.2913306215999998 -0.050723686300000015 0.5028962868000004
0.29107226900000027 -0.05023997179999995 0.5032241039
0.2908630765 -0.049559783199999874 0.5035043194999993
0.2908603510000001 -0.04916134379999981 0.5034189925000003
0.2906971642 -0.048533659600000334 0.5035905726999994
0.2905244762999999 -0.04814402549999963 0.5038453297999999
0.29032426030000025 -0.047702748899999925 0.5040735329000006
0.2902371691000001 -0.047207288900000144 0.5040395572000005
0.29016249500000013 -0.04666887080000004 0.5039527134000004
0.2897793797000001 -0.04596301489999988 0.5043852601000003
0.28956383080000014 -0.045466922900000206 0.5047484823000001
0.28947057499999973 -0.04496019579999988 0.5047193178000002
0.28952321540000003 -0.04439359009999988 0.5043492079999998
0.2893770898999999 -0.043854850400000256 0.5045602997000005
0.28904769880000014 -0.043314570899999794 0.5050858651999999
0.2888398931 -0.042786862200000275 0.5051721103000002
0.28883706789999986 -0.042227579199999976 0.5048051241999998
0.28867806520000006 -0.04163360340000022 0.5050755558999995
0.2879021478000001 -0.04076660080000005 0.5062170300000002
0.28784027330000006 -0.0402513525999999 0.5059905268999998
0.28785651339999996 -0.03966891379999993 0.5057783472999997
0.2872791990999999 -0.0388772799999999 0.5066093084000007
0.2871402613999998 -0.03835612649999964 0.5065773778000002
0.2872521950999998 -0.037823003100000196 0.5060974683000001
0.2872498136999999 -0.03726077679999973 0.5060672129999997
0.2865509597 -0.03610924159999973 0.5069162724000007
0.28633287109999994 -0.035268601499999885 0.5070171794
0.28655232259999996 -0.034903032899999964 0.5063064883999999
0.28642634059999983 -0.033922369699999955 0.5065287405000003
0.2858743691000001 -0.03296820860000027 0.5071700713
0.28602676019999995 -0.032475746200000266 0.5066943348999997
0.28600866589999985 -0.03196726329999988 0.5065511154999998
0.2852597721999999 -0.031537794599999724 0.5074593989
0.28467778999999993 -0.03094185540000005 0.5080042154999997
0.2849406242999999 -0.03031856779999975 0.5073195296000002
0.28523642419999984 -0.029766670099999892 0.5067453742000003
0.28456911120000017 -0.02935951559999994 0.5076282962
0.28427274609999964 -0.028940033099999596 0.5077477618000001
0.28415641800000024 -0.028197164699999888 0.5075901404999996
0.28396922940000024 -0.02776355170000011 0.5077073666
0.2831703324000001 -0.02711360640000038 0.5085127741000006
0.2827923005999997 -0.026626625400000048 0.5087617678000003
0.28285528430000006 -0.0260998144000002 0.5082217412999999
0.28304054040000004 -0.025484035100000302 0.5078073654999997
0.2826595942000001 -0.02488668429999974 0.5083340174000002
0.28187283510000016 -0.024154185100000003 0.5089588839000001
0.28200063559999977 -0.023601548700000308 0.5083471790999994
0.2820251455 -0.022961068899999937 0.5081923014000003
0.28138727350000003 -0.02218496180000029 0.5088563928999994
0.28103231789999983 -0.021669506699999896 0.5090668348999996
0.28093508619999996 -0.021111049299999962 0.5087843191000001
0.2809867974999998 -0.020517857199999767 0.5084209698000004
0.28043117959999986 -0.0196677526000002 0.5089812023000002
0.28009922740000004 -0.019128002099999986 0.5091886696000003
0.28031280869999975 -0.01792517930000015 0.5085368658
0.2800894468999999 -0.01751293899999995 0.5086160304999998
0.2788897912999997 -0.0169654199 0.5098676203999997
0.27796183480000014 -0.015989986299999703 0.5106284127
0.27843915379999995 -0.015123744099999836 0.5096489983999994
0.2783849937999996 -0.014546547200000148 0.5094987090999998
0.2777618687000003 -0.014016541799999782 0.5100424651000006
0.2772645438999999 -0.013089072400000124 0.5103287412999995
0.27721988310000034 -0.012423217299999845 0.5100342966999998
0.2770726535000003 -0.01206738970000032 0.5098948341999998
0.27661381659999984 -0.011624454999999756 0.5102819631000006
0.27568675360000006 -0.01036307549999993 0.5110151494000004
0.2756327434000001 -0.009926091500000123 0.5106992843000002
0.2754186950000004 -0.009234556100000013 0.5106599383999999
0.27439396940000016 -0.008398283100000015 0.5116448913999996
0.2742767486000002 -0.007693513800000051 0.5113984616999998
0.27427868109999975 -0.007253001700000095 0.5109738040000007
0.2738393710000002 -0.006407375800000281 0.5112325171000007
0.27286515840000014 -0.005634313099999844 0.5121307050999997
0.2726252920000003 -0.0044867899000000655 0.5120790260999994
0.27285595370000015 -0.003964172699999935 0.5113380126999996
0.2724566314999999 -0.003434066000000069 0.5115027448999996
0.2708810228999998 -0.0022951843999998722 0.5130520783000003
0.2712266269000003 -0.0016132727999997876 0.5122942769999996
0.27115777490000026 -0.0010653077000002398 0.5120280425999999
0.27001553130000033 -0.0007040269999998294 0.5131473300999998
0.2693945930999999 0.0006969839000001699 0.5133788718000005
0.26967313550000016 0.0010379207000004165 0.5125183057000005
0.2697183537000001 0.001523581199999846 0.5121996112999998
0.26892149629999995 0.001957677200000063 0.5132056165000005
0.26838340549999984 0.0023533566000000228 0.5132844491000004
0.26812497280000036 0.0029742717999998725 0.5131171109000006
0.26737017399999985 0.0036110067999999274 0.5138521282999999
0.2667439127 0.004180073699999731 0.5141313161000003
0.26687594270000004 0.005414079099999913 0.5133386154000004
0.2666676645999999 0.006015149700000055 0.5132894450000007
0.26576236730000025 0.006565446199999769 0.5143036036000002
0.26491265389999974 0.007065822499999985 0.5148460951999994
0.2648173366000002 0.007767880100000291 0.5141597436999996
0.2644666790999999 0.008616775300000157 0.5144035950000001
0.26381056309999984 0.009298894900000132 0.5149039776999995
0.26369745379999987 0.011867246200000015 0.5143162715000003
0.26325517619999994 0.012181754899999842 0.5146184005999999
0.2621657006999998 0.01249521780000018 0.5156845525999998
0.2612220988999998 0.012875651099999885 0.5162722927000001
0.26114202030000033 0.013519753800000256 0.5156140902000006
0.2607569102 0.014337574500000283 0.5158675142
0.26005330140000016 0.01495526139999992 0.5164054555000002
0.25968809020000005 0.015588686399999663 0.5162257318000005
0.25940662869999986 0.01635519700000021 0.5161670899000006
0.2584746969 0.017055357099999835 0.517044813
0.2576310395000001 0.017648411200000158 0.5175075454
0.2570002671 0.018905498899999706 0.5176073303999997
0.2566140686999998 0.019576149799999776 0.5176463877999993
0.2555288739999999 0.02088965899999984 0.5183469966
0.25491736249999963 0.02170589739999995 0.5186560717999997
0.2546880306999997 0.02226430019999981 0.5185267849999997
0.25444232589999993 0.02322148420000003 0.5183442586
0.2532292584000002 0.025153614000000157 0.5191271957999994
0.25280578789999986 0.025469327099999717 0.5193732296000002
0.2524242190999999 0.025843381700000112 0.5193709324999993
0.2519915157999999 0.026396719399999657 0.5195395065000001
0.25131106280000015 0.027004101400000202 0.519964882
0.2504919242999999 0.027551074500000272 0.5204312767000001
0.24988758009999978 0.02818200230000034 0.5206632541999996
0.2494131543 0.02896098089999999 0.5207904284999998
0.2487690949000001 0.02976453630000009 0.5211161874000005
0.24802278999999983 0.030457895000000068 0.521539421
0.24739916520000005 0.03115996249999986 0.5218228474000002
0.24694310739999992 0.03197842789999994 0.5219111880999998
0.24599860100000015 0.0332646750000003 0.5223344698000005
0.2451372759999999 0.03425609449999989 0.5228277017999998
0.2446688390999996 0.03487646139999967 0.5230582942999993
0.24421713 0.03557619100000009 0.5231324246
0.24335221629999992 0.036676990400000165 0.5235210178999994
0.24241902280000005 0.03754068870000005 0.5241394034000004
0.24191788690000005 0.03814005720000013 0.5244258807
0.2414926637999999 0.038840702100000346 0.5244263822999997
0.24070701329999977 0.03997376869999991 0.5247095429000002
0.23973145260000006 0.04081339380000015 0.5254178883999998
0.2388314134999998 0.04195646639999984 0.5259478054999995
0.23861719619999988 0.0425475339000001 0.5257675951000005
0.23779887430000013 0.04369942639999991 0.5261649385
0.23694555370000003 0.044599378799999645 0.5266996752000006
0.23664742370000003 0.04540935859999973 0.5267362734000001
0.23607333760000015 0.04613631359999992 0.5269230585000004
0.23490827849999985 0.047050724800000054 0.5276572908999997
