-0.20482971830000007 -0.2762905790999999 -0.4047362768999996
-0.20592151339999987 -0.27666738050000017 -0.4033000469000001
-0.20675658660000007 -0.27652781520000014 -0.40270694729999956
-0.20715094339999984 -0.2765265345999999 -0.40230722819999976
-0.20756048289999995 -0.2770999443000002 -0.4009418706000005
-0.20825513150000008 -0.2779033041000001 -0.39929701020000063
-0.2090277009000001 -0.27788811209999986 -0.3986545387999998
-0.2093846786000002 -0.27802658460000007 -0.39808270580000027
-0.2096085862999999 -0.2783937955 -0.39699181320000054
-0.21017785590000004 -0.2792519433999998 -0.3954357697999997
-0.2107594715000003 -0.27947008070000035 -0.3947648125999992
-0.21114769150000035 -0.27965512650000024 -0.3941770871000001
-0.2113490898000001 -0.2800173104999999 -0.39313077839999977
-0.2116543609999999 -0.28054161209999995 -0.3919515090000001
-0.2123655849999997 -0.2809881539000001 -0.39107635159999976
-0.21263457740000025 -0.2810654762999998 -0.3907588489
-0.21290321099999998 -0.2814694154999997 -0.38959763380000023
-0.21323545449999992 -0.28196226469999974 -0.3885402295000002
-0.21361528259999973 -0.28221010020000037 -0.38808280079999946
-0.2139208965999999 -0.2825892862999999 -0.38717517379999933
-0.21423553339999968 -0.28315416550000005 -0.3858833019999999
-0.21459322990000018 -0.28375118069999994 -0.38471201970000024
-0.2149879801000001 -0.28403597030000016 -0.3842392817000002
-0.21527735629999967 -0.28438379540000014 -0.3834922015999993
-0.21554743320000025 -0.28482657420000024 -0.3825249256999994
-0.21587790110000027 -0.2852171614000003 -0.3816796273999996
-0.21619116540000016 -0.2855619363999997 -0.38100363179999963
-0.21639833660000019 -0.28598939180000027 -0.3802453075000001
-0.21658198869999978 -0.2864903808999997 -0.3792601621999996
-0.2170683887 -0.28716597580000025 -0.37812452090000015
-0.2172883647999999 -0.2873501518000001 -0.37771159929999953
-0.21743474929999973 -0.2876639012000002 -0.37708253270000025
-0.2177169285999998 -0.28863233459999993 -0.37562149949999935
-0.21788464370000016 -0.28893179720000006 -0.37510615670000025
-0.21800488630000014 -0.28899079540000017 -0.37498265719999946
-0.21805499470000012 -0.28923258350000003 -0.3745268544
-0.21812854779999968 -0.2897105251000003 -0.37354006119999994
-0.2183649218000001 -0.2904171539 -0.3725873601000007
-0.21847636380000024 -0.29060456219999997 -0.3723025442000001
-0.21851570249999996 -0.2908963339999997 -0.3718748929000002
-0.21859296069999967 -0.29180188269999974 -0.37064395240000003
-0.2186898640999999 -0.2922543662999999 -0.3698901796000005
-0.2187796888000002 -0.2923689867000001 -0.3697610828000002
-0.21879794499999994 -0.29264319410000006 -0.36933285449999964
-0.21883893999999993 -0.29340270099999977 -0.36822312420000003
-0.21893260599999964 -0.29402072179999994 -0.3672869040999993
-0.2189932348000001 -0.29419370239999987 -0.3671433611000001
-0.21896377949999968 -0.2944245566000001 -0.3669387321000004
-0.21892079560000033 -0.29485824810000016 -0.36615195879999973
-0.2189381051999999 -0.29562135310000004 -0.3652324186999998
-0.2189602101000001 -0.295825781 -0.3650978457999994
-0.21890547429999963 -0.2961010911999997 -0.3648200235000001
-0.21878516650000002 -0.29685145339999996 -0.3638601858000001
-0.2187523965999998 -0.2972134322000004 -0.3633203454
-0.2185683636000002 -0.29778798250000005 -0.36303630879999993
-0.21803506379999993 -0.29823481409999975 -0.3629611144
-0.21792597209999975 -0.2988456037999998 -0.3621101982999999
-0.2178270926999999 -0.29955385590000017 -0.36136384899999996
-0.21770687550000023 -0.29971792779999973 -0.3613958158999999
-0.2175318892 -0.30001951800000004 -0.36117090679999997
-0.2174186387999999 -0.3007005029000003 -0.3602297443999998
-0.2173622366000001 -0.3012729436999999 -0.3595501788000002
-0.2173022760000003 -0.3014769095000003 -0.35957842240000026
-0.21709364980000023 -0.3017721796999999 -0.35942905010000015
-0.21699182909999992 -0.3021512350000002 -0.35879846830000073
-0.21695775069999979 -0.3026333322000001 -0.3581217728999997
-0.2169459869999999 -0.3029301535000002 -0.35809875270000013
-0.21668325999999993 -0.3033269693999996 -0.3579843961
-0.21653159089999985 -0.3037665732999999 -0.35726978029999934
-0.21644474449999995 -0.3042125150000001 -0.35684367619999957
-0.2163729448999998 -0.30445223389999976 -0.35696248220000015
-0.21619735649999994 -0.30464962569999976 -0.3570494489999998
-0.21598786599999986 -0.3050821933000001 -0.35640157130000016
-0.21585306489999967 -0.30556992110000003 -0.35589808369999965
-0.21574595279999986 -0.30587878749999975 -0.3559322117999999
-0.21554584079999994 -0.3061790498999999 -0.355839606
-0.21532107720000004 -0.3066440140000002 -0.3552506649999998
-0.21515627910000035 -0.3071433184000001 -0.3547779183000008
-0.21501199250000003 -0.30745966580000017 -0.35485292079999997
-0.2147771864000001 -0.3077351986000001 -0.3548548011000001
-0.2145165430999998 -0.3081894638999998 -0.3543235086000003
-0.21431315470000012 -0.30867453440000014 -0.3539215209000002
-0.2141316336000001 -0.3089659251000003 -0.3540686343999999
-0.2138640827999998 -0.30921656350000015 -0.3541663182999999
-0.2135696009000001 -0.30965014550000003 -0.35369755999999963
-0.2133352664000001 -0.31012229589999984 -0.3533369214999995
-0.21312769720000002 -0.3104270059000003 -0.35346484280000023
-0.21284236069999984 -0.31069841600000014 -0.3535416301000005
-0.21253398800000012 -0.31111699150000005 -0.3531510320000004
-0.21227631600000008 -0.31158617290000024 -0.3528081137000001
-0.2120485911000003 -0.31189489390000036 -0.35294873790000025
-0.21174706449999992 -0.31213684740000014 -0.35313353290000027
-0.21141284420000028 -0.31253678240000005 -0.3527893834000002
-0.21113353440000004 -0.3130194478999999 -0.3524151124000001
-0.21087712980000006 -0.31334699760000007 -0.3525791809000003
-0.21057139390000001 -0.3136406009999999 -0.35261713540000006
-0.21025967730000028 -0.3141344582000003 -0.35205474149999993
-0.20999458140000016 -0.3144919063999998 -0.3521959250000002
-0.20969548570000018 -0.3147044525 -0.35249869649999965
-0.20935834039999968 -0.31504508399999986 -0.3522891315000001
-0.20904844319999993 -0.31545585669999987 -0.3520915593999998
-0.20876175499999983 -0.3156679403 -0.35252681239999983
-0.20843305180000016 -0.31589275699999986 -0.3526277296
-0.20808520370000005 -0.3162463065000001 -0.3524686989000001
-0.20775425410000015 -0.3166417144999998 -0.3523576530000003
-0.20744750830000003 -0.31691937670000003 -0.35257206549999953
-0.20713767390000015 -0.317127454 -0.35283109349999986
-0.20645359630000026 -0.31768358239999994 -0.35269549369999975
-0.20614813300000012 -0.3179925414000002 -0.35267894789999943
-0.20561937799999974 -0.31833159109999976 -0.3529743439000006
-0.20535141820000025 -0.3185359044 -0.3531569060999997
-0.20473332269999966 -0.3190814804000004 -0.3529817411999998
-0.20421411560000013 -0.31964360550000004 -0.3527663945000006
-0.20378218339999998 -0.31990537040000033 -0.35309653169999944
-0.20356250529999986 -0.32001612830000026 -0.3534732663
-0.20300544359999995 -0.32039399700000004 -0.35347511239999996
-0.20235897460000007 -0.32108789400000015 -0.3531543107999999
-0.2021815094999999 -0.3212093356999999 -0.35352022809999983
-0.20175329369999995 -0.3213810229999998 -0.3538699785999997
-0.19962127950000008 -0.3227826668999998 -0.35362819870000006
-0.19960613780000003 -0.32286499540000024 -0.35379886900000024
-0.1995815287 -0.3228300332999998 -0.3543439879000001
-0.19949566759999993 -0.3227743443000004 -0.35482388239999985
-0.19931678580000023 -0.3229482294000001 -0.35470289860000026
-0.1991791181 -0.3231817375000001 -0.3547138056000003
-0.19903612169999985 -0.3233129302000002 -0.3550725146999998
-0.19883666489999996 -0.3233805433999999 -0.35549437279999996
-0.1983857628000001 -0.3236648255999999 -0.3555725551000002
-0.19804726689999974 -0.3240174534000002 -0.35558029199999996
-0.19771050330000017 -0.32413608829999996 -0.35606497199999954
-0.19750106769999975 -0.3241547534000002 -0.35664898729999983
-0.1972430031000001 -0.3243358512000003 -0.3566258097999997
-0.1968417520000001 -0.32474283579999996 -0.3566185782
-0.1963974142999998 -0.32478383099999997 -0.3573839963999994
-0.19616324870000001 -0.3248978146999999 -0.3576733905999996
-0.19590775319999976 -0.32519464089999994 -0.3574623117
-0.19549822430000008 -0.3256241524000001 -0.3575501743
-0.19528296600000017 -0.3256370188000002 -0.35830639180000023
-0.19501203779999976 -0.32566079579999974 -0.3587491485999994
-0.19470821170000008 -0.3259087933 -0.35861507509999946
-0.19422852020000025 -0.32634540229999986 -0.3587028100000005
-0.19349868209999999 -0.32635414959999975 -0.3597175276
-0.19240724379999996 -0.3267410221999998 -0.36027224449999995
-0.1917550306 -0.3273612899999998 -0.36007590549999957
-0.1916579531 -0.3275086462000001 -0.36020517969999943
-0.19142348869999992 -0.32740620239999974 -0.3610786072000005
-0.19097694779999985 -0.32748379780000025 -0.3615715843
-0.19067973549999984 -0.3277831068000001 -0.3615665422000003
-0.19053674079999983 -0.32794615930000015 -0.3617618879000002
-0.1903943577999998 -0.32795884890000027 -0.36242605149999996
-0.18996816149999995 -0.3278357996999999 -0.36325979109999995
-0.18952878119999994 -0.3281526241999999 -0.3632481947000006
-0.18933622849999976 -0.3283289332999999 -0.36349229989999987
-0.18913993309999988 -0.32831637469999997 -0.3642770213000004
-0.18887472179999998 -0.3283448431 -0.3646776994000005
-0.18856728740000017 -0.32860222429999997 -0.36454099459999956
-0.18832387540000006 -0.3288396172999999 -0.3648145839000003
-0.18779144069999987 -0.3287330422000001 -0.3659590260000005
-0.18750469559999994 -0.32876629690000003 -0.36650323429999965
-0.18691383810000017 -0.3292056231 -0.3663221868000006
-0.18667512340000014 -0.3293269006999999 -0.3668585442999994
-0.1861399263000001 -0.32935319519999995 -0.3675809763000002
-0.18584860459999986 -0.3295288999999997 -0.3677604695999994
-0.18531499699999987 -0.3297385744999999 -0.3682196974000007
-0.18508255740000035 -0.32974947929999976 -0.3689627874000001
-0.18453024559999998 -0.3296535451999998 -0.3698263596000002
-0.1842229971 -0.3298459200999999 -0.36990334910000033
-0.18367863299999998 -0.33014879120000007 -0.3702127234999999
-0.1832045899999999 -0.33021076449999986 -0.37094754620000003
-0.18270279879999984 -0.33017123429999984 -0.37180349699999926
-0.18219532299999974 -0.3303393065 -0.3721732838000005
-0.1817405903 -0.3306312787999999 -0.3723477615000004
-0.1813640630000002 -0.3307113062 -0.37297258669999955
-0.18115079199999995 -0.33062420589999997 -0.37390281190000074
-0.1806177216 -0.33060280089999994 -0.37446175699999973
-0.1803299866999999 -0.3308445565000002 -0.3744136981999997
-0.1799273010000002 -0.33110342039999985 -0.3748197647999998
-0.17970046270000006 -0.33104634880000017 -0.37572328180000003
-0.1793951680000001 -0.3310294094999997 -0.3762393439
-0.17906477349999994 -0.33116607519999963 -0.37643288269999964
-0.17878439230000032 -0.33126490639999995 -0.37698761580000006
-0.17847457130000022 -0.3311557325000001 -0.37801577439999967
-0.1780881406999999 -0.3310667252999999 -0.37873172500000063
-0.1764836485000001 -0.3316885885999996 -0.37891998260000026
-0.17526612740000003 -0.3321123185000001 -0.37951669080000006
-0.1752129197000003 -0.3319726375000003 -0.3804738849999998
-0.17505165200000006 -0.3318341268 -0.3811221046000002
-0.17482192409999975 -0.3319194620999997 -0.38122913100000044
-0.17464477239999976 -0.33199533979999973 -0.38174575760000007
-0.17442288099999992 -0.3318846461999998 -0.3826887525
-0.1741309096000001 -0.33179899189999995 -0.3833333405000001
-0.1737965953999998 -0.33191984419999976 -0.3834741345000001
-0.17351720199999976 -0.3319537618999999 -0.38420831879999984
-0.17318537099999975 -0.3317751902000001 -0.3853535236000001
-0.17278225930000035 -0.3316436442999997 -0.38611178629999987
-0.17234606219999993 -0.33181243270000005 -0.3861113092999995
-0.17200303800000016 -0.3319115227 -0.3867986217999997
-0.1716263333999999 -0.33184715769999995 -0.3877129423999994
-0.17118606569999972 -0.33182750400000005 -0.38828872110000034
-0.17075157289999998 -0.3318730212000003 -0.38884347640000083
-0.16851780500000002 -0.33225412509999996 -0.38998658750000015
-0.1679088137 -0.3320402994 -0.3911371747999999
-0.16746873090000003 -0.33221235689999995 -0.39147797900000025
-0.16714659180000035 -0.3325100686 -0.39153615149999954
-0.1668546192 -0.3323750819 -0.3924240428000001
-0.1664013955999999 -0.3319430249999997 -0.3938807788000007
-0.16591033869999983 -0.33209783299999973 -0.3942107885000006
-0.1655857142999997 -0.3323663465000002 -0.39428169189999984
-0.16531266310000037 -0.33223633340000003 -0.3952536539000002
-0.16489788869999966 -0.3320238545999996 -0.3962528779000003
-0.1644228078000003 -0.33213157699999973 -0.39658777759999975
-0.16398362219999996 -0.3324208053000004 -0.39670049840000043
-0.16380625979999985 -0.3323732294999999 -0.3975918938000005
-0.16327614010000024 -0.3319678689000001 -0.3989139659000003
-0.16270091610000037 -0.3320064835000003 -0.39939778859999997
-0.16239424899999966 -0.3321637531000001 -0.3996145810999998
-0.1621560449999997 -0.3321385510999999 -0.4004859715000002
-0.16153390590000027 -0.33175326799999993 -0.4018413997000003
-0.16116369420000032 -0.33178063489999987 -0.4022580859999998
-0.1607817733000001 -0.3319195625 -0.4025166787000005
-0.16045279260000012 -0.3319022072000002 -0.40337628550000026
-0.16006970910000007 -0.3316634578000004 -0.4046339461000006
-0.15960036330000005 -0.3315423311000001 -0.40521953739999983
-0.15912113919999982 -0.3317232965999999 -0.4052149705000003
-0.15875334500000005 -0.33178896420000026 -0.40597972769999924
-0.1583333121999999 -0.33158253729999965 -0.40722406919999976
-0.15783061040000002 -0.3314290633999999 -0.40797283059999945
-0.15694386390000004 -0.3317018985 -0.4079971535000002
-0.15660148499999993 -0.3316704065999998 -0.4089653452000004
-0.15619228939999985 -0.33155019080000026 -0.40981140040000064
-0.15572212600000013 -0.33156454820000025 -0.4101541139
-0.15527989320000035 -0.33156176900000034 -0.4108611038999994
-0.1548784797999998 -0.3313132389 -0.4122052546999999
-0.15437491160000016 -0.3310919375000001 -0.413099592
-0.15382811210000025 -0.33114272190000005 -0.41325705130000046
-0.15333051190000013 -0.33131118010000016 -0.41355920549999947
-0.1529331140000001 -0.3311159991000001 -0.4149688119999997
-0.1524065910000001 -0.3309635474999997 -0.4156743958
-0.15188662240000017 -0.330927934 -0.41621701350000073
-0.15140912490000025 -0.3308319342999999 -0.41711843230000056
-0.15090010320000014 -0.33073431850000024 -0.4178455259000007
-0.15033221460000012 -0.3307549885000003 -0.41829743070000003
-0.14982139770000025 -0.33076658159999983 -0.41890722579999995
-0.14934173110000026 -0.33065981759999996 -0.41983468970000004
-0.14883635370000015 -0.33037489560000033 -0.4211153484999999
-0.14824647440000005 -0.33035148189999974 -0.42139561559999983
-0.14770655349999995 -0.3304122931000002 -0.4218409940000001
-0.14721975450000002 -0.33028078659999993 -0.42288950579999973
-0.14667699700000014 -0.33016557749999986 -0.4236339838000003
-0.14610035139999988 -0.33030356709999964 -0.4236708248000003
-0.14561129289999997 -0.33029167950000016 -0.42451437179999996
-0.14512477179999994 -0.3300351986000001 -0.4257524625000002
-0.14455998039999995 -0.32991918060000014 -0.42636046400000005
-0.1419412231999999 -0.33057118080000025 -0.4266571414999998
-0.1418215784000001 -0.33042781619999984 -0.42743004450000033
-0.1416629128000002 -0.32994802209999996 -0.4289614506000001
-0.1413045817999996 -0.32980009870000027 -0.42921425619999987
-0.14094571869999983 -0.32977030350000014 -0.4296747056000001
-0.1406005896 -0.32953741000000036 -0.43075919139999996
-0.14020169510000002 -0.32928907279999997 -0.4316688089000005
-0.1397192811000001 -0.32933269209999994 -0.4318049423000003
-0.13925494520000026 -0.32939221179999967 -0.4321841758000007
-0.138818879 -0.32918965 -0.4332494714999999
-0.13834701640000002 -0.32892419050000044 -0.4342314139000001
-0.1378077226000003 -0.32888790499999976 -0.4345679162000007
-0.13727431219999975 -0.3288914089999997 -0.4349938991000002
-0.1363766487000002 -0.32842000039999997 -0.4363760993000003
-0.1359192291000002 -0.32836361569999983 -0.4370039444000007
-0.135424247 -0.3284298123 -0.43731334509999975
-0.1349168691 -0.3284359564999999 -0.4377422952000005
-0.13443906150000018 -0.32830374269999973 -0.4385846436999996
-0.13393476329999965 -0.32814775230000004 -0.43936261600000037
-0.13339914740000003 -0.3280511936999999 -0.4399586019999999
-0.13283507989999999 -0.3280270328999997 -0.4403330301999997
-0.13229830479999993 -0.32787630300000004 -0.44114882479999995
-0.13178838689999983 -0.32755431319999984 -0.4423143942000003
-0.13119536409999988 -0.3274226123999999 -0.4427675292000002
-0.12963605389999966 -0.3275938472000002 -0.4430783084000005
-0.12865171139999987 -0.3271515012999999 -0.44432977049999955
-0.12838251310000004 -0.32706606500000035 -0.4450434165999999
-0.1277800188999998 -0.32710717570000014 -0.4453099986
-0.12700225220000005 -0.32729059020000006 -0.44536265450000023
-0.12674921300000008 -0.3270824927999998 -0.4463970879000003
-0.12636756729999998 -0.3268461881000002 -0.44709789970000013
-0.1259007570999997 -0.32676791520000004 -0.44738249230000005
-0.1251104837999999 -0.32657581719999973 -0.44803402289999994
-0.12472973619999994 -0.32628346129999963 -0.44919840880000006
-0.12425328010000003 -0.3260409475000001 -0.44984333499999973
-0.12311359919999987 -0.3263261871000003 -0.4496691303000002
-0.12232201230000017 -0.3261318687000001 -0.4504488145000005
-0.1220423676000002 -0.32572623759999964 -0.4518590117999999
-0.12130028610000032 -0.32526406629999993 -0.4525987577000006
-0.12040157469999979 -0.3256552883000001 -0.45228384089999984
-0.1197011412000002 -0.3255456887999997 -0.4528218569
-0.11945063290000002 -0.3250989373000004 -0.45430633830000033
-0.11901294549999974 -0.32476992429999996 -0.4548648432000002
-0.11819991390000029 -0.3246854924 -0.4551074456000004
-0.11749678100000027 -0.32447910670000013 -0.4557686486000003
-0.11711023910000007 -0.3241726584000002 -0.4567908241999996
-0.11663025949999994 -0.3239143971999998 -0.4574226056000006
-0.11574112950000037 -0.3240855517000001 -0.45727347139999974
-0.11529014469999987 -0.32400514530000013 -0.45775574870000035
-0.11481764620000012 -0.32368579210000004 -0.4586957462000001
-0.11427396880000007 -0.32341313409999994 -0.45933185439999935
-0.11366598879999978 -0.3233475117000002 -0.4594997490999999
-0.11267163930000024 -0.32309069609999996 -0.4602012881999995
-0.11217508169999979 -0.322772273 -0.4612282174000004
-0.11158380570000004 -0.32252898249999973 -0.4616657037999996
-0.11032139510000016 -0.3226489069999996 -0.4617081601999997
-0.10846300419999988 -0.3224521177999997 -0.46250257949999973
-0.10803408900000022 -0.3220393684999996 -0.46338730339999934
-0.1075892196999999 -0.3219423497 -0.46374629359999986
-0.10722587390000005 -0.3220485215000002 -0.4635660648000002
-0.106594195 -0.3217350883000001 -0.4643782114000006
-0.10618879550000004 -0.3214202881000001 -0.46530442019999985
-0.10538525589999992 -0.3209710335000002 -0.46600233699999993
-0.10486957829999977 -0.3210033724999999 -0.4659197359
-0.10431180200000023 -0.32087878020000016 -0.46636002350000005
-0.10375765529999992 -0.3204819740999998 -0.4673758487999997
-0.10312748999999988 -0.3201651742 -0.46784197550000073
-0.1024388145999997 -0.3201773642000001 -0.4676904759999996
-0.10176527249999978 -0.32000879149999983 -0.4682399216000004
-0.10111626840000021 -0.31954758599999966 -0.46938204819999996
-0.10040182660000019 -0.31917392999999983 -0.4699177143000002
-0.09963047179999984 -0.3191793246000003 -0.4697105176999994
-0.09888429150000011 -0.3190244108 -0.47019103169999976
-0.09818295829999979 -0.3186242363999998 -0.47119487989999964
-0.09743640900000017 -0.31824573470000006 -0.4717754466999997
-0.09662648009999986 -0.31823714979999984 -0.47156055489999993
-0.0958609922 -0.31800432759999975 -0.47222010109999957
-0.0951133190000002 -0.31759201950000016 -0.4731390995
-0.09433379449999979 -0.317243446 -0.4736178389000001
-0.09349279860000026 -0.3171996618999997 -0.47347365500000027
-0.09264017240000033 -0.3169945182 -0.4739161801000007
-0.09184757749999983 -0.31657268279999995 -0.4748484230000001
-0.09101525499999985 -0.3162171027999996 -0.47528829029999997
-0.09014451840000026 -0.31620698989999996 -0.47507142659999957
-0.08928435340000007 -0.31599606420000015 -0.47557679250000007
-0.0884738394000002 -0.3155420566 -0.47654907170000005
-0.08761844419999987 -0.3151119046999997 -0.4770794222000001
-0.08670712880000009 -0.3150784274 -0.47682526370000033
-0.08578622869999997 -0.31488648639999983 -0.4771883990000001
-0.08494463280000009 -0.31449392970000023 -0.4780222113999999
-0.08404772049999965 -0.3141246865 -0.47842652299999955
-0.08310721530000009 -0.3140778879999999 -0.4782243673000002
-0.08217715149999982 -0.31382839409999974 -0.4787024095000003
-0.08131631449999999 -0.31329035439999986 -0.47979820549999985
-0.08037013849999974 -0.3128112988999998 -0.4802572775999998
-0.07938250830000015 -0.3126635072999999 -0.4801651518000005
-0.0777409909000002 -0.3122387991000002 -0.48075412869999923
-0.07695854110000022 -0.31203673479999994 -0.4811522303999993
-0.07614126789999975 -0.31175388029999995 -0.48148770360000004
-0.0752464906000001 -0.31171573850000023 -0.48124658149999977
-0.0737052265 -0.31130418299999985 -0.4818322703
-0.07293755470000018 -0.3109597974999998 -0.4825086591000005
-0.07156582199999972 -0.31040918569999976 -0.48305346969999974
-0.07074502790000015 -0.31042512450000004 -0.48273479770000005
-0.0672435869000001 -0.3100067619 -0.48351270569999993
-0.06688881709999972 -0.3097239181 -0.48404462060000064
-0.06636185989999976 -0.30932902649999994 -0.4843790913000001
-0.06564733899999986 -0.30925024290000014 -0.48404379539999987
-0.06353452660000025 -0.3086766139999999 -0.4846964706000003
-0.0630352798999998 -0.308426624 -0.48515265010000075
-0.062403101800000194 -0.30803146049999963 -0.4855139005000009
-0.06158683489999994 -0.30794908129999987 -0.4851596520000001
-0.060682267600000284 -0.3076466875999997 -0.48549709569999955
-0.05979223649999987 -0.30716576659999983 -0.48617193589999985
-0.05591791119999989 -0.30640000999999994 -0.4870106343999998
-0.05541756820000021 -0.30656585010000015 -0.4863088482999993
-0.05372913280000002 -0.3062165538000001 -0.48666916989999986
-0.05327705990000009 -0.30593259689999996 -0.48711119099999944
-0.051806895199999925 -0.30524691309999996 -0.48761037500000004
-0.05110219299999974 -0.3053350936000001 -0.4870136707999997
-0.05036941000000006 -0.30501317429999997 -0.4875053444000006
-0.04841931530000032 -0.3042549497000002 -0.4882627506000006
-0.04774729769999997 -0.3040945196 -0.4882462554
-0.04685510370000001 -0.30405750480000027 -0.4877743657
-0.04593031380000001 -0.3037043305 -0.48827208350000006
-0.04393362530000022 -0.30276053099999967 -0.4891897237
-0.043085213899999975 -0.30259237540000017 -0.4890913663000003
-0.042082081999999854 -0.3025453725 -0.4887193675999999
-0.04099345540000021 -0.3021755306 -0.48912706519999993
-0.039926981300000275 -0.30163319410000033 -0.48968442819999947
-0.03872306400000003 -0.30122759649999997 -0.4896964441999998
-0.03744700759999997 -0.3011451277999999 -0.4892300352000003
-0.03616466340000013 -0.30078290360000004 -0.48964023050000005
-0.03494188290000011 -0.30022394179999967 -0.49023698780000036
-0.033609273699999775 -0.2997882390000002 -0.4902702501
-0.03221323169999968 -0.29955559590000025 -0.49008312349999983
-0.03081857550000011 -0.2991620669999997 -0.4903719082000002
-0.029493778299999995 -0.29869975539999993 -0.4907383182
-0.02802944269999985 -0.29831760220000003 -0.49070553070000056
-0.020721195200000153 -0.2977568393000003 -0.49089282399999945
-0.02014719170000001 -0.29741325259999973 -0.4911421984999995
-0.01945549720000006 -0.2968195133 -0.49171100570000004
-0.018465648999999917 -0.2964288489000002 -0.49151324249999995
-0.017320091400000237 -0.29633425069999975 -0.4909654545000004
-0.016126205399999982 -0.29594174800000017 -0.4913209504999996
-0.014956939700000227 -0.295384533 -0.49174144289999955
-0.013612774900000346 -0.29500696420000017 -0.4915280314999997
-0.012176236600000223 -0.2949028414999999 -0.49100906679999934
-0.010732638599999955 -0.29445794950000037 -0.4914256708
-0.009353129399999993 -0.293825848 -0.49193557459999937
-0.007810241599999657 -0.2933855192999997 -0.49174367100000005
-0.00618510299999997 -0.2931872566 -0.4913404698999999
-0.004583732499999993 -0.29275485450000005 -0.49159468900000025
-0.0030535995999998455 -0.2921864257000002 -0.4919783500000001
-0.0013320575999999917 -0.29173032759999984 -0.4918144911000004
0.0004803022000001711 -0.2915125474 -0.4913007796000004
0.0034659662999998453 -0.29071939820000026 -0.4917576863999997
0.004896955099999989 -0.29008939479999984 -0.4923447666000005
0.006616092199999812 -0.2896590536999999 -0.4919738682999997
0.008401855700000294 -0.28944208139999983 -0.49151996590000024
0.01132064229999985 -0.28836481999999997 -0.4923701064000001
0.012910258399999819 -0.2879250871000001 -0.4922923641999999
0.014768618100000186 -0.28775142109999985 -0.4915012884000003
0.01780082329999999 -0.2875686892 -0.49105276969999956
0.020377764200000037 -0.2862841475 -0.4921750358999999
0.021981883200000052 -0.28584518790000013 -0.49188671059999933
0.023748018600000087 -0.2854696996000001 -0.4916022243000002
0.02671247670000021 -0.28437958860000023 -0.49218104320000045
0.02844108770000009 -0.28387601579999977 -0.4919852569000005
0.030282231999999798 -0.28359634750000007 -0.49144420420000046
0.03343179369999971 -0.28286224890000033 -0.49149152659999995
0.03511804340000024 -0.2822887131999998 -0.49163051140000036
0.036959888299999744 -0.2816690562999997 -0.49155111780000027
0.03893282620000038 -0.2811998928999997 -0.4912009559000001
0.04099403689999992 -0.28059985519999975 -0.49116347089999923
0.04306537389999976 -0.2798373732999999 -0.4913479075000007
0.04520467409999984 -0.27908492360000015 -0.4912682964999995
0.04743449609999972 -0.27854686000000006 -0.4908140139999997
0.0497628712 -0.2779764908 -0.49056520019999983
0.053648366500000044 -0.27656895309999996 -0.4909166313000002
0.055674428499999706 -0.2757461242999999 -0.49105381349999977
0.0578749932 -0.27514628740000013 -0.49054625529999996
0.061833550700000295 -0.27400893140000004 -0.49035128750000023
0.06527110550000037 -0.27251944849999976 -0.49078043110000014
0.0671828844000002 -0.27160963160000007 -0.49097268070000055
0.07084264480000035 -0.27051100810000017 -0.4903965341000003
0.07559085659999987 -0.2689161389999999 -0.4901504979000002
0.07842083239999997 -0.2673676159 -0.49067499409999993
0.08129691339999967 -0.2656820619999998 -0.49113165159999994
0.08441810109999981 -0.26475903840000026 -0.49039406340000014
0.08861128360000015 -0.26323701470000005 -0.4900476326999996
0.09813026240000022 -0.2574949100999997 -0.49148468990000005
0.09975597059999997 -0.2563292505999999 -0.49179767750000014
0.10160050009999999 -0.2559808198 -0.49088562860000007
0.10380934470000014 -0.25538672009999974 -0.49021949649999996
0.1064569606000001 -0.25366516100000025 -0.49069677810000023
0.10844959269999999 -0.2522415618 -0.49102573299999985
0.11097096210000013 -0.2514396952000002 -0.4901298681999995
0.11522793990000002 -0.24979006030000006 -0.48943406209999996
0.11781835569999988 -0.24769798949999977 -0.49010633540000015
0.1199998937000002 -0.24630464100000005 -0.4900890939
0.12328704950000002 -0.24465082929999982 -0.48968451530000046
0.1271524881999997 -0.24221884140000016 -0.4896958632000006
0.12920117740000014 -0.24085022489999997 -0.4897211037
0.13149024730000036 -0.23946024749999983 -0.48955362670000024
0.1340723614999999 -0.23822630560000002 -0.4890151297000003
0.1375420277999999 -0.2359555041000001 -0.48898904820000055
0.1405595180999999 -0.23340882000000018 -0.4894772642999996
0.14200852419999999 -0.23246855080000017 -0.4892572529999999
0.14511019309999984 -0.23110885040000007 -0.48825371890000024
0.14809696669999983 -0.22941912539999976 -0.4878717445000005
0.1505531211000002 -0.2271827837 -0.4884386453000005
0.15216628119999998 -0.2259548324999998 -0.4883348441000006
0.15428899810000019 -0.22498569050000006 -0.48723146199999956
0.1565563794 -0.22387981050000016 -0.48676659719999993
0.1585187534000001 -0.22236963440000013 -0.48715447989999916
0.1605747444000003 -0.22070272499999977 -0.48710850649999937
0.16306728479999988 -0.2193168156999996 -0.4860657758000002
0.1656264305999997 -0.21783262569999984 -0.48564782039999965
0.16784034829999994 -0.2159946227999998 -0.4860404996000005
0.17011238120000005 -0.21403389949999996 -0.4860006024999999
0.17470440899999984 -0.21106052619999982 -0.4847760929000007
0.17870704819999972 -0.20807300060000022 -0.4843106132999999
0.18172702600000035 -0.20467736820000004 -0.48503717160000015
0.18479135689999993 -0.20145644979999977 -0.4851544094999998
0.18851956020000005 -0.19907879269999995 -0.48371433819999954
0.19157590299999994 -0.19634982330000028 -0.4836523175999998
0.1943247134999999 -0.19347965809999979 -0.48372319350000037
0.1974562526999999 -0.191000893 -0.48282708099999994
0.20030493230000035 -0.18846942889999996 -0.48247211419999925
0.20283588880000014 -0.18561451229999992 -0.4826477354999996
0.20541346540000038 -0.18289022859999982 -0.4824345707000006
0.20715952679999994 -0.18150130099999995 -0.4817728905000003
0.21056453799999986 -0.17893949970000023 -0.4807422165999995
0.21481488750000022 -0.17387271690000006 -0.48080629779999917
0.21727527489999998 -0.17051972629999979 -0.4810042092
0.21869520450000035 -0.16934634960000006 -0.4803480939
0.220587729 -0.1681498144 -0.4792676508999998
0.22342157540000018 -0.16543795459999977 -0.47900563739999935
0.2256409827999999 -0.16270627699999984 -0.4789809484999994
0.22716640320000003 -0.16126853230000027 -0.47839056339999964
0.2291365111000001 -0.1598529435999998 -0.4773058169000004
0.23090711379999984 -0.1581689283000003 -0.4772204413000001
0.23350031030000018 -0.1548371115 -0.47714562969999985
0.2351709583999999 -0.15317835819999992 -0.4764797926000002
0.23709667810000035 -0.15149798840000006 -0.47566661270000044
0.2388413881 -0.14959949379999982 -0.4755977669
0.24142541109999982 -0.14594335329999986 -0.47552335950000035
0.2431287818000003 -0.1441735422999999 -0.4747337845999997
0.24519704949999976 -0.14246244569999966 -0.47356153239999976
0.24700103959999975 -0.14055143579999996 -0.4734296914999998
0.2505729982 -0.1354849556000004 -0.47295585380000027
0.25808799539999994 -0.12297293900000028 -0.4716044077000001
0.2588989894 -0.12255678010000004 -0.47093786309999963
0.25971533660000024 -0.12182774359999993 -0.4708721625000001
0.2615134407000004 -0.11894126990000009 -0.47077933240000025
0.26240166779999985 -0.11820074149999993 -0.4702000682999996
0.26360107850000025 -0.11730038909999996 -0.46947001990000015
0.2647126491999998 -0.11615400959999977 -0.4693039405999997
0.2670273849 -0.11237387320000014 -0.46900599499999984
0.26812046239999976 -0.11138750539999975 -0.4681739652000001
0.2696070556999999 -0.11032062009999999 -0.46702959669999977
0.2708654761 -0.10904143279999978 -0.4668539840000001
0.2719475184000002 -0.10764699089999974 -0.46665986969999995
0.27322066580000026 -0.10619904979999983 -0.46598083369999976
0.2746848973999998 -0.1047003703999998 -0.4651751782
0.27596178319999964 -0.10309931000000017 -0.4649325374000002
0.27802795159999993 -0.0990797641000003 -0.4647875320999999
0.2791934691 -0.09777744099999985 -0.46394062910000056
0.2804833885 -0.09640816279999997 -0.4632677480999998
0.28200620519999964 -0.09376469870000026 -0.4632050840999993
0.28303854390000005 -0.09242924370000027 -0.4626536291000001
0.2845125298000002 -0.09103483489999986 -0.46137980129999967
0.2858971254 -0.08959451870000024 -0.4607502801000001
0.2875713263999997 -0.08588611289999992 -0.4609270828999996
0.2885526693 -0.08469188250000004 -0.4602149680000007
0.29035169309999986 -0.08245611680000042 -0.45922135320000024
0.29152130740000004 -0.07961418049999969 -0.45935087620000026
0.2923151539000002 -0.07859690350000026 -0.45884823429999955
0.2934678643999997 -0.0775188185000002 -0.4578310839000004
0.2951921245999998 -0.07551988860000014 -0.45694789589999996
0.29612474219999996 -0.07301309019999991 -0.45718638469999995
0.2971406767999998 -0.07139067440000035 -0.4566897336000002
0.2981566615000002 -0.07047119009999969 -0.4556473947000006
0.299281621 -0.0695070606999999 -0.45476037189999996
0.30061435950000037 -0.0666566554000001 -0.4547826928000003
0.30123281739999985 -0.06524095299999999 -0.4548414073
0.30210517130000003 -0.06440637870000021 -0.4539131157999998
0.3047807113000003 -0.060055641199999954 -0.4523312496999994
0.30491081100000006 -0.0589733536999999 -0.4528270382999997
0.3052176807999998 -0.05853500560000002 -0.4529824152999993
0.3068688852000001 -0.05684442580000004 -0.45153631290000007
0.3076736195999996 -0.05554980140000021 -0.45114723379999955
0.3081160773999998 -0.054815579500000045 -0.45111485500000015
0.3088789941000001 -0.05382471490000018 -0.45066957520000006
0.30989289200000014 -0.05250956440000021 -0.45000241249999995
0.3104358550999997 -0.0516832546999999 -0.4498021973999995
0.31074346780000006 -0.05114684420000026 -0.44995463560000015
0.3114289346999999 -0.05000994340000009 -0.44961612489999947
0.31243675579999985 -0.048914455100000254 -0.4487231477
0.31324437409999994 -0.04791121119999975 -0.44821334889999953
0.3135103734000002 -0.04735587919999995 -0.4485314353000005
0.3139206781999997 -0.046689511899999925 -0.44835393189999984
0.31547609239999996 -0.044928185499999884 -0.4468941889
0.31600564229999994 -0.04434139419999994 -0.44647675519999996
0.3163020296000001 -0.04376799040000012 -0.44683319120000053
0.31672073309999993 -0.04308457529999998 -0.4466095703999997
0.3179342116999999 -0.04177825859999995 -0.44539419979999995
0.3188166048000003 -0.04066384249999988 -0.4447698671999998
0.31895908130000006 -0.040133124300000045 -0.4453347573000004
0.3192556578999999 -0.03950349469999992 -0.4452099896999995
0.31978703159999977 -0.03881674730000029 -0.44470843069999955
0.32029243129999996 -0.038140050300000006 -0.44447120029999976
0.3207625837000001 -0.03746692340000024 -0.44434178830000004
0.3212866504999998 -0.03675406910000012 -0.4440056973000006
0.3230655175999999 -0.03275264230000019 -0.44265704800000005
0.32331699029999994 -0.0325063871000002 -0.44263315790000046
0.32327152800000025 -0.03216724460000009 -0.44322788870000007
0.3236023834999999 -0.03184971429999983 -0.4428773148000005
0.32416032129999994 -0.031468700899999646 -0.4422447637999998
0.3247804076999996 -0.030835905200000013 -0.44199519549999966
0.32505796620000016 -0.03046681909999993 -0.4420478992000003
0.3254758272 -0.0299846210000001 -0.4416991997999995
0.3260847922000001 -0.02943876519999966 -0.4409603761999996
0.32678579979999967 -0.02859659300000006 -0.44061504590000045
0.32705122220000016 -0.027439298800000067 -0.44086653170000023
0.3275246756000003 -0.02638488059999977 -0.4406110004999997
0.3281976496000003 -0.02585473880000011 -0.43981848930000034
0.32857129900000004 -0.025409492400000122 -0.4397087339999999
0.32868068009999973 -0.02482810110000022 -0.44002084949999976
0.32906037460000004 -0.02412335040000002 -0.43978353540000015
0.32950409869999975 -0.02381107260000004 -0.4391065965999994
0.3299659053999999 -0.0235137436999997 -0.4387698705000007
0.3302736574999998 -0.022871625899999692 -0.43899965300000066
0.3306704372000002 -0.02234670250000015 -0.4386408579000003
0.3311853529000004 -0.021833327099999966 -0.43815941390000024
0.33146031500000017 -0.02139263439999972 -0.43814841719999986
0.3317546483 -0.020773454199999986 -0.4380664520999993
0.3324403135999998 -0.019245763499999846 -0.43741227589999987
0.33271193740000005 -0.01912275920000006 -0.43708384560000013
0.3329314952 -0.019003209599999682 -0.43714299160000003
0.3330997818000001 -0.018836012700000015 -0.43722658009999993
0.3335741583999998 -0.01820981399999999 -0.43675504990000036
0.3341017660000003 -0.017690251799999945 -0.4362334361000002
0.334294173 -0.017328715600000155 -0.4362703357000006
0.3344100849 -0.016936888200000055 -0.43638846680000043
0.3347948826999998 -0.01638708710000003 -0.4359904549999998
0.3352998746 -0.01593315350000024 -0.43547055909999965
0.3355370583999999 -0.015565065100000108 -0.43542434110000006
0.33561593769999964 -0.015252099300000044 -0.4355759345000001
0.3358757985999996 -0.014865206999999714 -0.4352958279999992
0.3362327917000001 -0.014527203700000157 -0.4349654921999999
0.3365662373 -0.014103431500000152 -0.4347385585000003
0.3366746358000001 -0.013892970599999721 -0.4348384689999998
0.3369397768 -0.013480833600000075 -0.4345650491000006
0.3371879752 -0.013259567299999997 -0.4342683788999997
0.3374696424000003 -0.013010934600000024 -0.43409408409999983
0.3376498294000001 -0.012730815000000284 -0.4341145636999997
0.33778594649999993 -0.012441321999999921 -0.43402833780000005
0.33823315200000037 -0.011989443699999658 -0.43346507929999945
0.33851463540000015 -0.011728283300000086 -0.43317613369999997
0.33870073189999994 -0.011434751199999926 -0.4332405209999992
0.33870975030000006 -0.011139200800000193 -0.4334226456000003
0.33890658159999987 -0.01084605389999993 -0.43302792300000004
0.3392845296 -0.010519367599999718 -0.4325721943999996
0.3395443436000001 -0.0101981667000004 -0.4324936615999997
0.3395838799999997 -0.00991645590000001 -0.43266351209999954
0.33979952869999996 -0.009605228499999896 -0.43229437960000006
0.3405965667000004 -0.008955056200000033 -0.4313047488999997
0.3406978582 -0.0086779614000001 -0.43143958470000054
0.3407283983 -0.008410276500000258 -0.4314957684000005
0.34130062709999986 -0.007862359399999796 -0.4306517870999995
0.34144735400000004 -0.007597717899999967 -0.43060219619999973
0.34139605370000004 -0.007347470900000097 -0.43094225649999984
0.3414180175000001 -0.007101605799999966 -0.43089030060000066
0.3421155201000001 -0.006247947899999939 -0.4299505709
0.34234704189999965 -0.00569359849999973 -0.4296829925000001
0.3421539891000003 -0.005556204200000359 -0.4303030678000006
0.3423089697999999 -0.004901505399999895 -0.42989828739999947
0.34285152250000017 -0.00422418240000022 -0.4291901301000003
0.34269061859999983 -0.004032554900000207 -0.42948850620000023
0.3427037305999998 -0.0037736403999999446 -0.4295108109000001
0.34334554839999987 -0.0035006831999999655 -0.42855939440000057
0.3438434096999998 -0.003207335500000408 -0.4279077018999997
0.3435843044000002 -0.0030005797000001166 -0.4284485966
0.3433218163999996 -0.0027552229999998623 -0.42887226720000005
0.3438667030000002 -0.0024311459999997176 -0.42787210560000055
0.34408786589999973 -0.0022248950999999018 -0.42756795830000005
0.34417080359999996 -0.0018845749999996109 -0.42763802760000047
0.34429081559999997 -0.00167841330000007 -0.42739638840000005
0.34493685090000037 -0.0012490125000002017 -0.4263656288999993
0.3452105126999996 -0.0010003056999998705 -0.4259331277999996
0.3451169999000001 -0.0008037540000001009 -0.4264875613000001
0.3449275881 -0.0005795068000002956 -0.4267897491000001
0.3451833809 -0.0002524575999998113 -0.4259127944999994
0.34581562350000006 0.0002901614000001551 -0.4251343149000002
0.34564884650000005 0.000510095699999713 -0.4257501126000003
0.3455698778999996 0.0007931757999997124 -0.4256593282000001
0.3460582631000002 0.001351080400000093 -0.42476444540000013
0.34628015079999974 0.0016502911000002563 -0.4243492214
0.34628732090000014 0.0019215000999999177 -0.4245462358000003
0.3461741918999999 0.0021660423000002815 -0.4247709441999996
0.3465661434 0.0027103583999998904 -0.4239161420000004
0.34677112369999996 0.0030251164999999247 -0.4235278003999996
0.34651484229999996 0.0037343981000002024 -0.42407358849999977
0.3466119780000003 0.0039995307999998175 -0.4237283322000005
0.3475312878999999 0.004499087500000165 -0.4221724717999997
0.3482162579000003 0.00507129010000007 -0.4212693417000004
0.34771081930000003 0.005382658299999843 -0.42219591740000073
0.3476736642999998 0.005755342800000118 -0.4220612062000004
0.3480883038 0.006171273700000146 -0.4212574895999994
0.3483810101999998 0.006770917099999885 -0.42083474799999987
0.3482933250000002 0.0070963812000002235 -0.42094172819999987
0.3483125642 0.007256169599999751 -0.42077464179999957
0.34856681830000014 0.00749768839999998 -0.42008987199999925
0.34921519179999994 0.008365006900000083 -0.4192902708999995
0.3491355958 0.00854650130000012 -0.4194159451999999
0.34919548970000003 0.008902694200000116 -0.41916959769999984
0.3498911988000004 0.009578735899999913 -0.4179516477999998
0.3498678286000003 0.009900092799999705 -0.41801838439999983
0.3497283150000001 0.010061913799999989 -0.4182207485999996
0.3499292486000001 0.010596533299999766 -0.4176558970999995
0.35058023029999985 0.011203243999999835 -0.4165261849000004
0.3506350438000001 0.01193523679999986 -0.4164498200000004
0.35028813800000025 0.012117678500000117 -0.41694512460000066
0.3504634512 0.012505508499999873 -0.41642179509999977
0.3515748138000001 0.013322408400000096 -0.4146340968999995
0.3511391503000003 0.013696336300000223 -0.4152139934000001
0.35104968790000024 0.01400602169999976 -0.41525177709999994
0.35180151390000036 0.014404456100000296 -0.41373211460000014
0.3520930564999998 0.015271626700000152 -0.4133612477999993
0.35176314190000024 0.015317225900000064 -0.414170908
0.35153954899999995 0.015469175399999813 -0.41413125860000033
0.35199287349999997 0.01583568390000023 -0.41262541749999926
0.3522836401 0.016128221699999834 -0.4124689966999995
0.35234613680000004 0.016411707199999626 -0.41244730089999937
0.3527380376 0.016805711499999987 -0.41123551719999973
0.35309055089999974 0.017166768400000088 -0.41080400400000006
0.35276790439999983 0.01765660449999995 -0.4115544337000001
0.3527310049999999 0.018021392799999703 -0.4112638675999998
0.35326181300000004 0.01852350420000004 -0.4097407570999998
0.3537914362999999 0.018972257200000175 -0.40901675829999995
0.3536687300000003 0.019257182800000106 -0.40972133320000026
0.35373427359999976 0.019691084199999764 -0.4090757828999996
0.35406630690000007 0.020185878399999968 -0.40823666640000056
0.35372369800000003 0.022556952900000038 -0.4087606763
0.3539132387999997 0.022751131999999785 -0.40811478410000035
0.3545933994000001 0.023092181800000056 -0.40641219829999997
0.3551599649999999 0.023361440499999997 -0.4056645609
0.35505327600000003 0.023485502500000255 -0.4064936641000001
0.3551434247999996 0.023815707300000266 -0.4057598338999995
0.35550775270000035 0.0242271405000003 -0.40485739679999977
0.35557497930000004 0.024532225299999766 -0.40498551179999964
0.35557466159999995 0.024892980700000233 -0.4048295922999996
0.35607251259999995 0.025442000500000006 -0.40329677309999923
0.35654310460000005 0.02591391190000003 -0.4026213403000005
0.3567676166 0.02658013689999983 -0.4024736665999997
0.35682821539999976 0.026973562099999793 -0.4021373145
0.3573729151 0.02798832189999967 -0.4011106014000001
0.35762627069999997 0.028572891400000078 -0.4005274713000002
0.3575833183999997 0.028863070399999913 -0.4005303977999999
0.3574994535 0.029428684600000032 -0.4005262600999995
0.3579756061000001 0.031474377599999936 -0.3993557302000008
0.3581205464999999 0.03168009539999961 -0.39876362149999967
0.35820903459999975 0.031853494699999985 -0.3986394000000004
0.35834905049999977 0.0321279283 -0.39823595859999994
0.35865887769999993 0.032525921199999974 -0.39737519410000033
0.35906065600000003 0.03292333730000019 -0.3964960530999999
0.35930156639999966 0.03326184930000009 -0.3962079447000004
0.35944883360000013 0.033633171900000036 -0.3959671895000003
0.3596933733000003 0.03411304169999996 -0.3952211973999997
0.36001982659999987 0.03460401840000005 -0.3944432880000006
0.36025332509999997 0.035030082100000026 -0.3940766428
0.36036528170000004 0.03547264779999981 -0.3939228957000003
0.3607435939000001 0.03638499200000034 -0.3930319527999995
0.36109193989999966 0.03717275139999998 -0.3922487815000002
0.36121224389999984 0.03758285759999991 -0.39186294860000004
0.3613168552000001 0.038036823800000175 -0.39162268599999983
0.36163371099999964 0.03887400810000008 -0.3908625528000007
0.3620471181 0.03960939050000034 -0.3899365003999993
0.3621962529 0.03999623579999989 -0.38952816030000026
0.3622782916 0.04042407540000026 -0.3893790475999994
0.3625238079999997 0.041248255100000186 -0.3887160786999999
0.36296438769999995 0.042005335000000255 -0.3877098842000004
0.36329816260000003 0.04281452399999974 -0.38709831990000065
0.36323413549999994 0.04315450899999984 -0.3871626811999995
0.3634717022 0.04413008959999987 -0.3864079283999997
0.36378992760000006 0.04495003779999962 -0.3856526712999999
0.36374403909999975 0.04545945789999983 -0.3856815468999999
0.3638910591000002 0.04608938120000028 -0.3851361044999999
0.3644171849000002 0.04694971049999985 -0.3839847472000004
0.36479752860000003 0.04761819970000003 -0.3832214663000002
0.36475574300000035 0.04803385829999973 -0.38325672960000023
0.36471933010000024 0.04859468599999994 -0.38308503479999967
0.36510525680000017 0.04931525619999988 -0.38200780719999994
0.3655421072 0.04995179559999974 -0.38114352069999935
0.3655683893999999 0.05043836209999997 -0.3811211514999995
0.3655182483999999 0.050793231999999744 -0.38105502770000044
0.36589930279999994 0.05164256089999997 -0.3799829146000002
0.36617949549999995 0.05234260450000017 -0.37940230689999943
0.3662439554000003 0.05272664950000028 -0.37915699589999985
0.36607036699999984 0.055423975200000086 -0.37879085329999995
0.3662058975 0.05569860509999991 -0.3781998765999992
0.366453151 0.05598365399999983 -0.3777054393999997
0.36664550659999984 0.056266490200000074 -0.37736249239999964
0.3668154844 0.05666854610000005 -0.3769042007000003
0.36707151410000005 0.05715336989999997 -0.37620143090000013
0.36733009659999993 0.05759167509999985 -0.37570374299999987
0.36719288049999976 0.06018192599999983 -0.37546596710000024
0.3673086364000002 0.060593061900000134 -0.37506628630000005
0.36744384240000016 0.06092277449999983 -0.37456903679999964
0.3676234691000002 0.061272869600000224 -0.37414977509999936
0.36772686649999997 0.06167033140000022 -0.37393526359999996
0.3678948246 0.06215805019999987 -0.37338745080000013
0.3681572622 0.06265524159999991 -0.37270987940000033
0.36833569499999985 0.0631048958 -0.3723561420000001
0.36842864659999996 0.06360827419999993 -0.3721432631999999
0.3685747919 0.0642432745999999 -0.3716238388999997
0.36880095970000015 0.06487708359999989 -0.3709574147000003
0.3689573749999999 0.06544473570000031 -0.37060806730000007
0.3689566013000003 0.06602401020000004 -0.3706133204999995
0.3690424822999998 0.06672550560000001 -0.37008851140000054
0.36919973010000007 0.06743730260000014 -0.36951884600000007
0.3692375378000001 0.06807510129999983 -0.3694170281
0.3692460904999999 0.0687769121999997 -0.3691829869000003
0.3693930486000001 0.06960501310000033 -0.36851125600000056
0.3695635976 0.07038427010000037 -0.3679677265999999
0.3695747262000002 0.07106170919999988 -0.36792561489999986
0.36951391719999993 0.07180166980000013 -0.36785301230000034
0.3695682937 0.07266054999999971 -0.36731232900000066
0.3697493421 0.07411547400000007 -0.36658685129999924
0.36965242379999985 0.0747654563000002 -0.36664725799999953
0.36955051999999977 0.07551690890000007 -0.36657369829999986
0.3694507414000001 0.07696835320000028 -0.36622796770000043
0.3694145363999999 0.07772015560000023 -0.36590184210000043
0.3692514694 0.07907061329999987 -0.36584870749999965
0.36912515280000013 0.0798252923999998 -0.3658359518000003
0.3690493132000001 0.08067687910000032 -0.3656034112999995
0.3690225895000001 0.08218737689999989 -0.3650381636000004
0.3689224779 0.08292536130000006 -0.3650088775000002
0.3685826603 0.08433609970000022 -0.36517226680000014
0.36845010869999983 0.08517212930000007 -0.3650110587000004
0.3683576284000001 0.08673001189999985 -0.3645042852999998
0.3682141441 0.08747851289999975 -0.3645643354999999
0.3677963471000001 0.0889214104999998 -0.36478981939999944
0.3676427884 0.08978910630000003 -0.3646348686999996
0.3674693606999999 0.09140239189999999 -0.3642322950999999
