0.015392314000000074 0.04916424490000004 0.5977061625
0.015698676600000017 0.050137139600000324 0.5974115785
0.015879519499999883 0.05130692090000011 0.5970203343
0.01626308089999995 0.05350989210000012 0.5962902184000001
0.016552483499999937 0.05435570529999989 0.5959165084
0.016836357799999924 0.055371286700000244 0.5955384147
0.01697864849999986 0.05656074600000016 0.5950971807
0.017430663799999913 0.058366702699999884 0.5944689
0.017831337900000133 0.059359982899999775 0.5940536161000001
0.01820176469999968 0.060434769300000024 0.5937182363
0.018372183700000377 0.06169601300000016 0.5932802634
0.018842993899999883 0.06403080920000015 0.5924729216
0.019499843000000183 0.06552604310000021 0.5919521391
0.020038831399999957 0.06701159830000014 0.5915642798
0.02012645469999974 0.06839987530000036 0.5910630633
0.020383488100000235 0.06973824389999983 0.5902976506000001
0.02080989880000006 0.07086425409999997 0.5897985164
0.021347347000000294 0.07230863689999989 0.5894132354
0.021449491799999887 0.07371546640000037 0.5889966889
0.021750162000000017 0.07494912969999978 0.5882052394
0.022100575599999672 0.0758825986999998 0.5876388880000001
0.022637115599999813 0.07745823500000037 0.5871894794
0.022895262000000027 0.07894518900000014 0.5866731128
0.02326977649999984 0.08043831940000024 0.5858734139
0.023644873699999902 0.0814326690999998 0.5852869377
0.023995889700000106 0.08253999439999982 0.5848607713
0.024325411900000038 0.08440187479999972 0.5843710423
0.02458008300000003 0.08551932549999997 0.5835545141
0.024951081700000266 0.08674328969999978 0.5830363869
0.02534747599999987 0.08803053659999982 0.5824966296999999
0.025613877699999676 0.08941063209999989 0.5818763334
0.025999001499999785 0.09080087080000032 0.5811635876
0.026465069199999913 0.09220192250000014 0.5806525723
0.02692851559999987 0.09358132530000018 0.5801658179
0.027243158300000125 0.0949965167000002 0.5795286494999999
0.02764846870000026 0.09644672080000039 0.5787381525
0.02810403540000017 0.09794319859999989 0.5780674121
0.028471443399999963 0.09934630030000013 0.5776468182
0.02885393710000006 0.10080084650000032 0.5769143335
0.02935999070000017 0.10230745260000029 0.5760434916
0.029873259299999955 0.10382980069999981 0.5754076331
0.03051106449999974 0.10596461979999994 0.5749426035
0.03083431619999999 0.1071250935000001 0.5742485639
0.031239187999999807 0.10842827580000014 0.5734484284
0.03226827049999992 0.11102534990000024 0.5727109314
0.03268945960000025 0.11236170169999982 0.5721047605
0.032901878499999704 0.11334490720000012 0.5713932197
0.033219990499999685 0.11457216319999963 0.5705221102
0.03363889969999967 0.1158742317999999 0.569996728
0.03427259799999982 0.11786405430000002 0.5693581872
0.03458927960000002 0.11899991970000023 0.5686264599
0.034982594000000145 0.12033241709999976 0.5677275467
0.0359689594999999 0.12291863829999983 0.5669965721
0.03643458899999974 0.12415818480000018 0.5664988254
0.03666303289999995 0.12508312239999997 0.5658145523
0.03700326389999997 0.12626116840000012 0.5649872746
0.037719768800000164 0.12828491460000002 0.5642525315
0.038302899600000107 0.12974790549999993 0.5637496421
0.03859671520000019 0.13075637549999986 0.5629945019
0.038970652300000186 0.13203410400000015 0.562042133
0.039431611899999996 0.13339985590000003 0.5614243074
0.04015382940000034 0.13536142500000015 0.5607698036
0.04049436900000014 0.1364779449000002 0.5600187403
0.04090299829999999 0.13778784889999995 0.5591279788
0.04169808620000026 0.1399222255999999 0.5583366088
0.04210729369999999 0.1409180365 0.5578684333
0.04301788499999981 0.14341803720000001 0.5567915030999999
0.04386485560000031 0.14536557610000012 0.5556416225999999
0.04433797500000036 0.14637938820000018 0.5551204557
0.04501920469999998 0.1476629165000003 0.554638634
0.045461199200000024 0.1491501931000001 0.5537038115
0.04592042959999976 0.15035841449999987 0.5528058844
0.04652688179999975 0.15165611619999986 0.5522648619
0.04704850609999989 0.15274431189999982 0.551775461
0.04742595680000017 0.1541349697000003 0.5508208643
0.04797333520000002 0.1556728464999999 0.5498801377
0.04838547100000001 0.1565991863999998 0.5494134343
0.048783383099999966 0.1574916756000002 0.5489831491
0.049136828999999604 0.15865509300000014 0.5481067881
0.049856023599999855 0.1607455365999999 0.547011843
0.0503516353000002 0.1618106332 0.5464627796
0.05079371850000003 0.16283653860000014 0.5459043379
0.05116485609999977 0.16408527080000024 0.5450091833
0.05161130810000003 0.1654876384999997 0.5439961472
0.05215065699999988 0.16686060609999975 0.5433807389
0.05266460489999991 0.16801058879999964 0.5429290293
0.05309621409999998 0.16930263479999974 0.5420157361
0.05360152730000012 0.17066687749999998 0.5410915480999999
0.05417706259999999 0.17201151059999997 0.5404864644
0.054710639400000094 0.17313441470000024 0.5399895812000001
0.0551663724 0.17442322110000008 0.5390394980000001
0.05568949510000021 0.17578329040000007 0.5381574285
0.05627706659999987 0.17710661770000025 0.5375024985
0.056819160500000354 0.1782208863000001 0.5369765577
0.057280545599999844 0.17950207559999987 0.5360619953
0.05780623080000025 0.1808433737999997 0.5351262647
0.05839984780000007 0.1821521031000004 0.5344627022
0.058945514299999946 0.18323328799999983 0.5339951656
0.05941461579999974 0.18446020830000043 0.5330875472
0.05995283869999968 0.1857372368000001 0.5321861957
0.060551750000000126 0.18699661010000002 0.5315613295999999
0.061104564100000314 0.18802190980000022 0.5310783422
0.061579035699999896 0.1892099260000002 0.5301723063
0.062117513500000054 0.19046243950000008 0.5292811779
0.06272724289999987 0.1917061653000003 0.5286206905999999
0.06328746330000001 0.19266865180000003 0.5282046834999999
0.06379794269999994 0.1937916703 0.5273318131
0.06433461900000026 0.19492477120000018 0.5265852791
0.06493126589999987 0.19590896599999974 0.5261877470999999
0.06544990990000032 0.19690933200000016 0.5254309906
0.06594784110000029 0.1981229231999997 0.5244959625000001
0.06652707400000013 0.19921243850000003 0.5239099764999999
0.0670910857 0.2002540494999998 0.5233118157
0.06753812819999983 0.20134392949999969 0.5224787188
0.06805072800000023 0.20249043759999985 0.5217234867
0.0686479577000001 0.20346956979999975 0.5211776566
0.0691913720999997 0.20441044229999994 0.520643192
0.06968489329999983 0.20536539549999988 0.5199431763
0.07021018209999985 0.20651687350000003 0.5189813511000001
0.07121368559999963 0.20808220049999981 0.5182563452
0.07167888059999994 0.2088216211999998 0.5177786896000001
0.07236033469999992 0.2101519064999997 0.5168734882
0.07279763720000032 0.21093731100000035 0.5162050064
0.07369098329999968 0.2119788093999997 0.5157046306999999
0.07438859710000001 0.21279005829999997 0.515250831
0.07490550879999969 0.21364878500000017 0.5145767402
0.0752589454999999 0.21435067130000007 0.5138777559000001
0.07605130090000012 0.21540354399999995 0.5133019828
0.07690552620000002 0.21630523819999992 0.5128553436000001
0.07717373640000025 0.21673008760000023 0.5123812261
0.07772453229999998 0.21781812429999992 0.5115863514000001
0.07970051150000002 0.21841390260000004 0.5111902985
0.07981353590000007 0.21877126659999968 0.510860741
0.0799256655999998 0.2193185337000001 0.5102883842000001
0.08013951669999964 0.2201751832000003 0.509559412
0.0805466654 0.22091109519999996 0.5092223517
0.08090368889999988 0.22158754189999996 0.5088683858
0.08123482859999998 0.2222926895999997 0.5083052653
0.08162495520000013 0.22321138070000002 0.5075598691
0.08232947720000006 0.22437468630000001 0.5070155129
0.08281530359999989 0.2251359947 0.5066398794
0.08320665259999993 0.22595667060000002 0.5059875116
0.08353154669999974 0.22665716189999996 0.5052537356
0.0839274485999999 0.22718803509999974 0.505092537
0.08451339430000004 0.22795834020000028 0.504730249
0.08498312840000022 0.22893574169999997 0.5038601205000001
0.08532608050000023 0.22951028799999973 0.5034157898
0.08573815789999983 0.22982581869999974 0.5034706021
0.0862960814 0.23040545490000008 0.5031033538999999
0.08655094499999993 0.23095194229999993 0.5024545049
0.08689002819999958 0.2316383526000001 0.5019298918
0.08732409480000003 0.23204979100000012 0.5019278363999999
0.08791540469999992 0.23267023259999986 0.5015838419
0.08852020760000023 0.23381924079999994 0.5006314757
0.08955256580000004 0.2349550547999999 0.49979745610000004
0.09019630610000018 0.2347573916000001 0.5000006777
0.09031930779999975 0.23489263329999988 0.4999907369
0.09050481179999981 0.23556532650000017 0.4993283292
0.0910501737999998 0.23649334679999967 0.49871120710000005
0.09145504389999992 0.2366956080999998 0.49871102759999997
0.09162980189999992 0.2368984102999998 0.49863813779999994
0.09179091419999974 0.23726005279999995 0.4982309674
0.0922552123 0.23829017919999984 0.497413061
0.09278043520000034 0.23863728929999972 0.4974215651
0.09300604889999997 0.23884766909999966 0.49733521639999995
0.09320684420000003 0.23926591780000006 0.49683116350000006
0.09349467779999987 0.2397636017 0.496556194
0.09385824370000018 0.23992831250000002 0.49680009030000005
0.09413429980000032 0.2401130921000001 0.4966971122
0.09453449419999993 0.24094105759999973 0.4958901162
0.09482350519999994 0.24141004879999972 0.49552242459999996
0.09541426770000028 0.24156101509999983 0.49577800899999996
0.09563192809999999 0.24176122970000025 0.49557247010000005
0.09602468860000002 0.24228215539999987 0.49518043399999995
0.0963235308999999 0.2424738421999999 0.4951768853
0.09675620990000011 0.24271624050000007 0.4950658215
0.0968966174000001 0.2430371654000001 0.49473074610000006
0.09723304160000001 0.2437138155999996 0.494261325
0.0975556001000002 0.24386866150000008 0.4943652011
0.09802127339999966 0.24394348640000008 0.49441134700000006
0.09829335580000009 0.24428933660000007 0.4941235558
0.0985997365000002 0.24477743220000026 0.49371366440000003
0.09902680769999961 0.2450403467000002 0.4936318846
0.09934999629999997 0.24498182659999967 0.4938946151
0.09950645199999997 0.24514328760000037 0.4938073911
0.09961740909999994 0.24544269719999967 0.4934027526
0.10000747469999993 0.24587812960000033 0.4932423176
0.10025544860000002 0.24580172420000013 0.4936803823
0.10042745870000003 0.2456827652000002 0.49384456449999997
0.10054889440000014 0.2458684753 0.49353304800000003
0.10075851450000028 0.24608789110000018 0.4934837876
0.10099473060000008 0.24610242800000037 0.4937703538
0.10111857869999996 0.2461492568999999 0.4938181754
0.10127124660000009 0.24640201080000024 0.4934512774
0.10152840499999982 0.24674048709999985 0.49322390039999997
0.10238912860000005 0.24661120250000002 0.49359742850000005
0.10259740779999982 0.24638108219999966 0.4938653012
0.10264105209999963 0.24658884319999963 0.493548302
0.10280330299999996 0.2468703926 0.49341363039999997
0.10301011919999992 0.24685909870000033 0.49382005539999996
0.10307415569999989 0.2468197352999999 0.4940106422
0.10317585350000025 0.24694638840000005 0.4937763631
0.10332866340000013 0.24710830449999976 0.4937616111
0.1034940981000001 0.2470080284999998 0.49425206620000006
0.10357853429999997 0.2469956281000001 0.4942599522
0.10369857549999972 0.2472067591 0.49389275129999993
0.10389619650000004 0.24746736239999967 0.49377570260000003
0.10410173930000033 0.24732490029999976 0.4944288531
0.1041809156000002 0.24723100639999984 0.4945247652
0.10428844489999989 0.24727634620000005 0.49440828509999996
0.10448554809999999 0.2473256242999997 0.494493331
0.10461365909999998 0.24726058569999987 0.49475058759999996
0.10491732840000001 0.2472302243000004 0.4947798657
0.10515755989999986 0.2476000654999999 0.49446569840000004
0.10549142509999987 0.2473809188999998 0.4947577173
0.10555548280000027 0.24677163170000016 0.49549174279999997
0.10540021409999989 0.24669898170000026 0.49562842850000005
0.10545402089999989 0.24718850399999992 0.49513018959999994
0.10571105710000017 0.24707008299999966 0.4954532537
0.10579017170000027 0.2466109836000001 0.4961070632
0.10563695670000017 0.24652463869999997 0.4961973739
0.10568870410000031 0.2466083135999999 0.4961236011
0.10592519970000014 0.2464801266000003 0.4964148262
0.106041936 0.24595170379999987 0.49711866849999997
0.10593690209999984 0.24585726900000004 0.4972101499
0.1059171990000003 0.24603375909999992 0.49696877100000003
0.10612522459999996 0.24598423790000012 0.4971950238
0.1061834425999999 0.24572003040000023 0.4977542321
0.10607493909999999 0.24556507530000005 0.497906294
0.10602465890000001 0.24564014989999983 0.49772179019999996
0.10615878530000034 0.2455756417999999 0.49795326
0.10622949339999987 0.2452842368999999 0.49851331460000003
0.10620045839999959 0.24509625540000002 0.49864911749999996
0.1062096079999999 0.2451138036999998 0.49843013310000006
0.1062800731000002 0.24506612430000008 0.4987197218
0.10629545679999985 0.24465992809999992 0.49955727559999996
0.10619375220000027 0.24433883709999993 0.49980245489999997
0.10616355189999993 0.24425450119999992 0.49963291470000004
0.10624469289999983 0.2442098682 0.4997480764
0.1062967091 0.2435059839 0.5007742665
0.1061855084000003 0.2433392107000003 0.5008191641999999
0.10613410069999984 0.24322335740000023 0.5009405725
0.10614010880000002 0.24296412280000013 0.5014489861
0.1060914076999997 0.24267503720000017 0.5017424212
0.10594077279999992 0.24266979249999965 0.5015510428
0.1058877680000001 0.24262736099999982 0.501675596
0.10591881670000003 0.24233563079999998 0.5023146089
0.10590115010000023 0.2418888143000002 0.5028781328
0.1057070576000001 0.2417707830000002 0.5026953291
0.10567469089999992 0.2415975306 0.5029875265
0.10563749320000015 0.24136786300000024 0.50333031
0.10547519800000016 0.24119667320000016 0.5034859989
0.10541651150000009 0.2409907738000001 0.5037576113
0.10545119849999995 0.2406547673999997 0.5041749632
0.10536823780000004 0.24035700349999978 0.5044806644
0.10521204210000024 0.24015403540000024 0.5046249394
0.10513556059999996 0.2400052706000002 0.5046920978
0.1050866505000001 0.23973110440000012 0.5051377054999999
0.10496303779999971 0.2394229323000001 0.5055283081999999
0.10487539410000002 0.2391765134999999 0.5056646755
0.10477645469999963 0.23893851779999986 0.5058584879
0.1046982085999999 0.23865136890000027 0.506229525
0.10459649699999973 0.2383216397000001 0.5066192445000001
0.10444360609999981 0.23811940699999967 0.5066898439
0.1043095825 0.2379742139000003 0.5066877603
0.10422677530000035 0.23713298699999985 0.5074489211000001
0.10410850069999977 0.23695203109999996 0.5078437942999999
0.10391372929999987 0.23688929319999996 0.5077531769
0.10381953279999978 0.23668065370000013 0.5080642385
0.10372065389999996 0.23643268610000012 0.5083631269000001
0.10355971439999978 0.23620362800000017 0.508543023
0.10339249189999977 0.23604576929999999 0.5086009381000001
0.1032938204999998 0.2358268389 0.5087912726
0.10321420750000021 0.23547117270000006 0.5093268675
0.10302040940000001 0.23519122019999994 0.5095324023
0.10280938260000028 0.23506538519999998 0.5094271745
0.10268620410000029 0.2348054813 0.5097487425
0.10257977089999981 0.2344346048000001 0.5102719866000001
0.10223896739999994 0.2340389034000001 0.5105512435999999
0.10207463799999994 0.23389184590000012 0.5105142995999999
0.10196792070000038 0.2336297086000001 0.5107884817
0.10187203469999995 0.23323319479999993 0.5113560192
0.10166694720000002 0.23296598850000017 0.5113904967
0.10148927759999982 0.23283368020000017 0.5112955515000001
0.10139726900000001 0.23250892259999967 0.5116582344999999
0.10126034150000018 0.23214738999999973 0.5120735422
0.10098736689999965 0.23198925270000004 0.5120414745999999
0.10076146809999997 0.23198050829999994 0.5118121621
0.10059572900000013 0.23171625539999985 0.5122076461
0.10029617939999991 0.23101449809999997 0.5127957778
0.09986048990000018 0.23121376980000008 0.5125910985
0.09977987059999993 0.23112607799999996 0.5125500556
0.09967500210000013 0.23066614659999995 0.5129634445
0.0994396043000001 0.22989791410000038 0.5137297293
0.09926612510000021 0.22984816610000003 0.5134532251
0.09913029629999981 0.2298240519000001 0.5133991633
0.09895278460000023 0.22962628340000002 0.513701234
0.0987097001999997 0.22930923580000018 0.5139646033
0.09850639159999997 0.22930608499999972 0.5136458164
0.09835301320000012 0.22926388009999998 0.5136094814
0.09806983439999994 0.2284881161000003 0.5143816555999999
0.09778773490000026 0.22828959749999989 0.5144566142
0.09759004750000022 0.22847345600000013 0.5138860821
0.09742384049999986 0.22863930910000008 0.5138077648
0.09718274590000009 0.22791534989999995 0.5145586332
0.09690740349999993 0.2275964320999999 0.5148179629999999
0.09669440439999999 0.22781923209999988 0.5141303197
0.0965807421 0.22790222910000013 0.5140647375
0.09638009929999969 0.22765317120000006 0.5144016437
0.09610964029999991 0.22757464100000036 0.5144143140999999
0.09592998999999969 0.22766726869999987 0.5140069943
0.09581491279999987 0.2276418242 0.5139017655
0.0955814294999997 0.22705514240000024 0.5145186193
0.09538241439999995 0.22692129390000026 0.5145219713
0.09517349600000014 0.2269659462 0.5141852631
0.09502082029999981 0.22687465720000022 0.51414541
0.0947960148 0.2266561318 0.5143781419000001
0.09450514469999982 0.22660096119999995 0.5143063348
0.09431681829999983 0.2266934760999999 0.5138384716
0.09416090889999973 0.226672588 0.5138736736999999
0.09378173269999968 0.22627087580000005 0.5142425153
0.09332502910000029 0.22641317709999997 0.5141527644999999
0.09321586019999994 0.22656831399999966 0.5136969084
0.0931238995000001 0.22646279500000022 0.5136586744
0.09289687560000015 0.22613850189999996 0.5140835133
0.09262385409999974 0.22603133480000004 0.5138381343
0.09248155449999995 0.22616074149999976 0.513226639
0.0923197201999999 0.22624651590000022 0.5131146898000001
0.09209864020000014 0.22604345100000023 0.5134041192000001
0.09188632710000011 0.22604210740000008 0.5131781055000001
0.09172239920000003 0.2262364669000001 0.512554677
0.09154237659999964 0.22629321199999985 0.5125074747
0.09129599639999997 0.22610034850000016 0.5128048539
0.09106736199999999 0.2261042240000002 0.5125448525999999
0.09090241740000016 0.22636326169999998 0.5117671154
0.09073593069999975 0.22652689000000015 0.5115732627
0.09050230840000006 0.22639493460000004 0.5118595197
0.09027077200000022 0.22642232519999972 0.5116227308000001
0.09010640049999985 0.22666939379999995 0.5108809058999999
0.08993171189999982 0.2268526726000002 0.510638256
0.0896963667999997 0.2267445271999997 0.5108876076
0.08949001839999982 0.22684659500000004 0.5104830952
0.08933414510000004 0.22715651949999982 0.5097116533
0.08917175169999991 0.2273588274999998 0.5094801698
0.08893554550000005 0.2273059104999997 0.5096551581
0.08871447960000012 0.22745359330000037 0.5093108203
0.08857003190000023 0.22782252339999998 0.5084764715
0.08840097960000026 0.22808278989999975 0.5082205066
0.08817619359999984 0.22803842399999974 0.5083914339
0.08796706090000006 0.22819652909999988 0.5079851073999999
0.08783643570000033 0.2286280661000002 0.5070150161
0.08768439529999972 0.22899193260000006 0.506642793
0.0874789696999998 0.22902762270000032 0.5067554861
0.08727241340000003 0.22921482500000012 0.5064291425999999
0.08714937369999998 0.22962737999999971 0.5055180919
0.08699326900000015 0.22997189940000018 0.5051941279
0.08678993109999977 0.23005363899999987 0.5051897682
0.08660143040000001 0.2303069877999997 0.5047081337000001
0.08651134450000031 0.23091173200000004 0.5034813226999999
0.08639067899999997 0.2314342051999998 0.5030451498999999
0.08625554579999983 0.23168951129999993 0.5028844591
0.08613566770000025 0.23240494330000017 0.5021703036
0.08604859089999994 0.2327423344999997 0.5014598317
0.08588263930000029 0.2329961894000001 0.5011849273
0.0856827548000001 0.23301857039999962 0.5011799981
0.08550917549999992 0.23361343499999965 0.500406473
0.08544707900000015 0.23413005490000005 0.4993272765
0.08534397159999996 0.23490264240000025 0.4987237506
0.08520147939999978 0.23499207369999997 0.4986465186
0.08548228340000019 0.23617691870000002 0.497579966
0.08539852829999983 0.23649394089999998 0.4966104064
0.08523621789999991 0.23682365519999982 0.49622132779999995
0.0850556733000003 0.23694159530000025 0.49613394239999997
0.08498126799999994 0.23812568199999973 0.49508897459999995
0.08492332700000027 0.23852256370000013 0.49407926500000005
0.08478123140000005 0.23891147830000037 0.49364588909999996
0.08463204519999978 0.23907850099999983 0.4935317427
0.08447247349999998 0.23950830179999993 0.4928275085
0.08442105500000041 0.24029833750000007 0.4915014567
0.08494889350000001 0.24215648840000004 0.49025702810000005
0.08477282399999986 0.24201202860000004 0.49037370989999995
0.08459477969999973 0.24276704719999964 0.4895528955
0.08453014199999975 0.24315852329999998 0.4885440898000001
0.08448896510000026 0.24433927980000014 0.48758133439999995
0.08436676520000042 0.24440681329999991 0.48751259739999997
0.08423138310000011 0.24481201620000004 0.48669452180000006
0.08441453329999993 0.2466678765000001 0.4848486464999999
0.08431736989999994 0.2469402546999997 0.4843856932
0.08418884599999998 0.2470713686999999 0.48436465710000004
0.0840761109999999 0.24759043059999986 0.48337760649999995
0.08424631849999997 0.24965404330000007 0.48128249770000003
0.0841795608 0.25003623720000023 0.48088774870000006
0.08410269380000024 0.2502964946999997 0.48061548499999995
0.08403063640000008 0.2509529682 0.47955095700000006
0.08404205360000017 0.2519442424 0.4781222192
0.08399670329999998 0.25273894470000036 0.4775476232
0.08394584950000006 0.2532466992 0.4771582903
0.08391890479999997 0.25407360840000015 0.47595660030000003
0.08397077919999996 0.2552262992000003 0.47436717249999993
0.08395922010000012 0.25615175190000006 0.4736730819
0.08399824089999974 0.25694200590000005 0.47287667660000005
0.08403148370000002 0.2578886063000003 0.471715596
0.08408114720000004 0.2589524492999997 0.47036202090000007
0.08410690939999999 0.25988294310000004 0.4695626906
0.08604889989999975 0.2621092004000003 0.4676786828
0.08595916559999983 0.2625498640999999 0.4667505254
0.08591119730000019 0.2634322037999999 0.46533711350000007
0.08581160879999983 0.2641843892 0.46474946559999997
0.08574917670000026 0.26476837500000006 0.4642034055
0.08571226300000001 0.2657227912 0.4628802983
0.08574397240000042 0.2669472350000004 0.46126527640000003
0.08572409430000016 0.26791587130000005 0.46052746330000005
0.08573797310000009 0.26867293729999986 0.45984917010000004
0.08578234490000014 0.2697870138999998 0.4583428327
0.08591002730000019 0.27120980569999986 0.4564658308999999
0.08597054170000007 0.27233156759999977 0.4556211693000001
0.08609890870000037 0.27327420559999993 0.4547069426
0.08622079169999974 0.2744283438999999 0.4532273094
0.0863833117999997 0.2757803011000002 0.4514869833
0.0865264095999998 0.27694894989999996 0.45049568189999994
0.08671057059999976 0.2779737418999999 0.4495163076
0.08721556720000034 0.28016403229999964 0.4472739376
0.0874713064999999 0.2814479597999999 0.44533740009999995
0.0876778584000002 0.28248311840000007 0.4445233163
0.08790201450000001 0.2833996509000003 0.4435151313
0.08849990610000003 0.2857863736999997 0.4407897932
0.0887874973999998 0.2868611849999998 0.4394234531
0.08898485600000017 0.2875557678999998 0.4390370012
0.08948076950000017 0.28871597049999975 0.437716156
0.09009538600000022 0.29080853620000013 0.4349593973
0.09037685500000014 0.29170756040000034 0.43389694400000006
0.0906134404000003 0.2925611748000003 0.4329001617
0.09126599100000021 0.29478925600000006 0.4302644283
0.09155384590000004 0.2957416719999997 0.4291313343
0.09183223249999983 0.2965794246 0.42814540700000003
0.09245920269999974 0.2983305508999998 0.4261355234
0.09277677890000025 0.2993750962999999 0.4245317066
0.09311549350000003 0.3004801574 0.4231108193
0.09342149119999998 0.30151017830000004 0.4219443998
0.09373042329999981 0.3026602143999999 0.42047850330000003
0.0941337163 0.3040790455 0.4184865238
0.09452207879999985 0.3054805148999997 0.4168285331
0.09489036489999991 0.30667593800000015 0.415548913
0.0952819869999999 0.3078687106000002 0.4141177468
0.09629855130000031 0.31052837739999983 0.410870943
0.09678897670000008 0.31173190659999994 0.409194481
0.09724832800000005 0.3127681402999998 0.40796882980000004
0.09826646789999982 0.31465224879999987 0.4057575786
0.0993749932000001 0.3166548106999998 0.4029762029
0.09989372400000018 0.3176835441000003 0.4013704141
0.10093502039999969 0.31917965760000033 0.39963066740000003
0.10248456299999997 0.32074247879999973 0.39757323040000003
0.10350460999999989 0.3222074729000002 0.3951384178
0.10453296169999993 0.3238332705000002 0.39275943189999996
0.10548734400000015 0.3247929258000002 0.3914829043
0.10689620929999988 0.3259903953000003 0.3896918491
0.11258107550000007 0.32765492740000024 0.3857768702
0.1130784068999997 0.32872105120000006 0.3839059819
0.11338053599999975 0.32927758360000015 0.3830661324
0.11373946430000004 0.33003227059999984 0.3819475801
0.11458106860000017 0.33219528119999975 0.3787355745
0.11524913110000012 0.33374946849999976 0.3763372156
0.11595267499999995 0.33480195839999993 0.3749148839
0.11746022960000024 0.3359972151999999 0.3730783306
0.11869823800000034 0.3378007313000002 0.3699511231
0.11956129700000018 0.3390018302000004 0.36791156010000003
0.12096622890000042 0.3404379622000002 0.365608345
0.12290748280000008 0.3419662872 0.36291143319999997
0.12385361709999998 0.3429737008 0.360831603
0.12486318920000006 0.34404838640000035 0.3588469755
0.12593044240000006 0.34507167299999963 0.35698531349999996
0.12768857390000043 0.34667889569999977 0.354119592
0.12956429380000012 0.34850583759999987 0.3506528693
0.1301696041999998 0.34910282199999987 0.34924401819999995
0.13147347340000026 0.3500656873000003 0.3475132352
0.13283479730000014 0.3510069038000001 0.3455052854
0.13432653309999987 0.35259036900000007 0.3421767146
0.1350881145999998 0.35341744220000004 0.3403918482
0.13585116799999986 0.35409643709999994 0.3392204143
0.13669549879999998 0.35484083590000015 0.33755268780000003
0.1376120608 0.35599860529999994 0.3348296395
0.13857295559999994 0.3572816258999998 0.33235765
0.13959350700000028 0.3583368885999998 0.3305812452
0.14070055759999978 0.3593466801999998 0.3284202469
0.14188088869999982 0.36064487560000025 0.3253854051
0.1431091053000002 0.36198193850000004 0.3226515066
0.1457829514000002 0.36367018500000015 0.31932544300000004
0.14856359789999996 0.3646791425 0.3163243871
0.15141428309999982 0.36596054060000016 0.31231790049999997
0.1543331917999997 0.36698034209999975 0.30894685089999996
0.1572391058 0.3671767611000001 0.3071106965
0.16014818490000016 0.36750814060000003 0.3044162197
0.16305732140000018 0.3680410114999999 0.30139575030000004
0.16596355980000022 0.3681791912000003 0.2992608349
0.16887336400000041 0.3683951915999999 0.29666357680000005
0.1718225216999998 0.3688046439999999 0.2936168962
0.17478647960000027 0.3691942397000001 0.29065446320000005
0.17626747820000022 0.3693184877000002 0.289167909
0.17933038709999982 0.36946923479999993 0.2866288744
0.18550504550000024 0.36929602200000033 0.2820268688
0.1899720290000002 0.3690105532999999 0.2784917703
0.19141501370000036 0.36884935159999976 0.277282674
0.19289041739999968 0.3687424352999997 0.2760963262
0.19596958539999987 0.3688165362999998 0.27300382549999996
0.1990891450000003 0.36899328099999984 0.2696363028
0.20066483910000033 0.3690047540000001 0.2679887553
0.20228530659999988 0.3689853619000001 0.26645754
0.20397436619999976 0.36912474380000004 0.264166276
0.20746012550000037 0.3695631286000003 0.2599804606
0.2092344866000002 0.3695646803999999 0.258115246
0.21106385150000007 0.3695645918999997 0.2561400947
0.2129665746999998 0.3696683972999999 0.2536111281
0.2168518006000002 0.36988970939999977 0.2491776257
0.21880792789999992 0.36972674849999976 0.24735332110000002
0.22082152649999998 0.36948199819999994 0.2455692816
0.222899269 0.3693212374999999 0.2431548025
0.2291876075000001 0.3684242462 0.2379681273
0.27491511840000005 0.33875774699999983 0.2325651638
0.2752085957000001 0.33872200480000014 0.2318267276
0.27555257340000017 0.3389619408 0.2304552905
0.2779105983000001 0.33973827599999984 0.2258550578
0.27842067260000025 0.33969799239999965 0.2248883189
0.27899815670000017 0.33978969009999993 0.2235636765
0.2796503404999999 0.34003121699999994 0.2217672844
0.2826025702999999 0.34037600459999995 0.2169358794
0.28334899310000017 0.34019405739999975 0.2159287344
0.28415873990000007 0.3400680493999997 0.2147265733
0.2850378760000001 0.3400705463999998 0.21295031439999998
0.2858989379999999 0.3402361053999998 0.2110068364
0.28680243790000004 0.34040368080000016 0.2091310246
0.2877847292000002 0.3405101185000001 0.2072049305
0.28881059639999984 0.340634192 0.20505895799999999
0.29198809290000005 0.3404988253000001 0.2003112399
0.29305950319999985 0.34013733540000013 0.19903289799999999
0.29415293259999986 0.33985169809999993 0.19750749180000002
0.2963684595 0.3393957041000002 0.1944481277
0.29744927269999977 0.3391033481000001 0.192971663
0.29856086420000016 0.33874994999999997 0.1916108554
0.29969590089999976 0.3384619788000003 0.18992814959999998
0.30306005999999996 0.3375254581 0.1857893753
0.3041274961 0.3370311763 0.1846188549
0.3063038964000002 0.33608790469999983 0.1824291824
0.3093952322 0.33462866439999983 0.1794388532
0.3103575210999998 0.33409392539999994 0.1784658914
0.3112981370000001 0.3336499464 0.1773595695
0.3132099436 0.3329124394999998 0.1750327941
0.3159146541000002 0.33170952320000024 0.17205292500000002
0.3176043500999999 0.33072782940000023 0.1705860817
0.3183892749999999 0.3302677232 0.1697573969
0.31916726670000006 0.3299484487000002 0.1685098325
0.32222877149999984 0.3287762381000001 0.164645492
0.3236111198999998 0.3279517650999999 0.1633517061
0.32423138949999997 0.3275698407000003 0.1626310206
0.3307031843999999 0.3224168932000002 0.1597937077
0.3325904800999999 0.32116044330000015 0.157994889
0.3328926605000002 0.32100313329999963 0.15736667110000002
0.33411636499999986 0.32047017680000023 0.1557238736
0.33522255089999975 0.3201350077999998 0.153671659
0.3356652337999999 0.32015124559999997 0.1523114343
0.3361012295000001 0.32016953510000024 0.1511160117
0.33671798220000015 0.3203274468999999 0.1491227576
0.3370752804000001 0.32056426820000006 0.14738053429999998
0.33720890010000026 0.3207849926999997 0.14622927489999998
0.3375060014 0.32122660729999986 0.1444032814
0.3378094193000001 0.32157808639999974 0.1425997789
0.3381184384 0.32200909870000016 0.14054547099999998
0.33822328950000013 0.3222813495999999 0.1392489868
0.33831234369999974 0.3226118016999999 0.13802425200000001
0.3387913907 0.32320907670000043 0.1353469804
0.3388989319000002 0.3233891273 0.1341748503
0.3389817675 0.3237646414000004 0.1326692915
0.3390449553999999 0.32416841379999983 0.1312591603
0.3392755036999997 0.3248214210000002 0.12886389609999999
0.3395308371000003 0.3253387931999998 0.1265324206
0.33959980099999987 0.32564030609999994 0.1251643619
0.3396546164000003 0.3259722422000002 0.1238686325
0.3396840108000001 0.32634829730000003 0.1224321316
0.33968234610000003 0.32684199010000015 0.12066815339999999
0.3396984838999999 0.3273555598 0.1189568258
0.3397293987000003 0.32780500280000036 0.1173336843
0.34415742920000003 0.3245962669 0.1135662589
0.3441099769 0.32489082989999973 0.1124442709
0.34398985290000006 0.32534084949999986 0.1111377778
0.3438842422999997 0.3256111714000003 0.1102364973
0.34373682789999993 0.32603733219999986 0.1089092491
0.34352364280000014 0.32707377770000035 0.10616084749999999
0.3434144803999999 0.32747983790000035 0.10487606549999999
0.3433307255 0.3278525177999998 0.10357471850000001
0.34321998959999966 0.3282879267000003 0.1020250715
0.3430948897999997 0.3292798095 0.0989832642
0.3431977464 0.33002018050000004 0.09597150260000001
0.3436530551999999 0.32981955659999995 0.0946571565
0.34379869910000016 0.3299018698 0.0933015979
0.34384968240000013 0.3302370026000001 0.09147477130000001
0.3439586240999999 0.33058306680000005 0.08946581470000001
0.3442587572 0.33052901120000033 0.0880880795
0.3442491981 0.3305942919000002 0.08714775629999999
0.3441830545000002 0.3309001639 0.0856424632
0.34425998280000014 0.3315766001 0.0825373207
0.3444546479999997 0.3316176408000002 0.0810435301
0.3446257276 0.3317377415 0.07927634250000001
0.34471949849999994 0.3319828306999999 0.0773471671
0.3450612169 0.3319906550999998 0.0753886869
0.34895345649999987 0.32807538839999983 0.0745592504
0.34884362330000007 0.32814760210000005 0.0738321636
0.3486571810000001 0.3284848855 0.0725573755
0.34848475469999984 0.32885405619999997 0.0711660673
0.34849949599999963 0.32935923869999995 0.06833982999999999
0.34866475799999996 0.3295094920999997 0.0661008944
0.34876377309999995 0.32970311100000016 0.06401673769999999
0.3489904094999998 0.3296286129999997 0.0625872645
0.3494834600000001 0.32919157760000006 0.0614443673
0.3498945410000003 0.32893452919999966 0.0596753852
0.35026683049999985 0.3288442904000002 0.0574077858
0.3505797737999998 0.32859680570000016 0.05624362779999999
0.35094894939999977 0.3281936658000002 0.055500395300000005
0.35117092670000005 0.32805591960000013 0.0539672289
0.35154600569999994 0.3278940724999999 0.051855762599999994
0.3516945866000003 0.32767289119999976 0.05130519770000001
0.35200136419999994 0.3274705509999998 0.049685795899999996
0.35203198439999994 0.3274154093999999 0.0485414247
0.35210043599999974 0.32741135769999996 0.0472287475
0.35223154610000007 0.3273224182000001 0.04602407189999999
0.3524200744999999 0.3271426352 0.0447856048
0.3528811947999997 0.3268966577000003 0.04209237119999999
0.3530361312000001 0.32673304329999997 0.04083761929999999
0.35328483430000013 0.32650942169999997 0.03972596739999999
0.3536385754999998 0.32611041909999994 0.038803341000000005
0.3538902442999996 0.3258018615 0.03750185
0.35409483419999965 0.3256210580000003 0.0359360916
0.35438261350000033 0.32535728610000003 0.03453394030000001
0.3548344577 0.3248709674999999 0.03347253480000001
0.3551574767000001 0.32448486219999984 0.032184451200000005
0.35569172669999993 0.32408609749999995 0.029269981399999992
0.3560920916000003 0.3236136487999999 0.028408884699999998
0.3565386373999999 0.3230718350999999 0.027627622500000018
0.3571997163999998 0.3223935956999999 0.025357733900000012
0.3575931023000001 0.3218975907999999 0.024583612899999996
0.35809236170000025 0.32130052750000004 0.024036550100000012
0.35849423930000013 0.32075475829999966 0.0232904892
0.3600500849000001 0.31915229960000024 0.020626519900000015
0.36110383850000005 0.31793024940000025 0.0198328936
0.36153668979999987 0.3173451321999998 0.019949781000000014
0.36295784110000007 0.31569977839999996 0.018770598400000005
0.36543768210000005 0.3128609070999997 0.017863640600000008
0.36553506 0.31262974980000013 0.0176515723
0.36564788729999975 0.3124267784999999 0.016688920999999995
0.365564939 0.31245800190000006 0.014670992800000004
0.3656138496000003 0.3123346575000001 0.01302934289999999
0.36585449100000034 0.31196721809999994 0.012965487299999995
0.3660607085999996 0.3116245511 0.01273264369999999
0.3660150606000001 0.3115450142 0.010935158
0.36603128090000014 0.31140986459999986 0.010195146300000013
0.36624449540000015 0.3111192268999998 0.009115286
0.36627205799999984 0.3109384451000001 0.008439075800000001
0.36639223079999983 0.31070608649999976 0.006531134399999999
0.36645724469999985 0.3105024178 0.0057771461999999996
0.3666517568999996 0.3102290032999999 0.005388288700000021
0.3667595684 0.30998014139999963 0.004979676799999999
0.3667511467 0.30979438130000014 0.003974988099999993
0.3669772789000003 0.3094742476000003 0.0021569529000000087
0.3671812510000003 0.30918802069999973 0.001934884100000006
0.3672572142999999 0.30895110069999987 0.0014813927000000005
0.3674318972999999 0.30861203049999997 -3.165360000001449e-05
0.3674864392999999 0.3083997208999998 -0.0007255939000000156
0.36761810510000004 0.3081780264999998 -0.0012423275000000011
0.36772944640000027 0.30794940419999994 -0.0016282388999999953
0.3678752231 0.3076311195999999 -0.0029337669000000233
0.36789528969999985 0.3074474291000002 -0.0036058843000000007
0.36818773000000027 0.30708599700000017 -0.004256085699999995
0.3681957691000002 0.3069181464999997 -0.004575268300000018
0.3682209635999998 0.30668578429999993 -0.006183752300000012
0.3683645417000001 0.30640087709999975 -0.007838072499999987
0.3684849586000003 0.30622057430000016 -0.007720221700000002
0.3685106408000003 0.3060606439 -0.007957717599999997
0.3684695044999997 0.30593437980000004 -0.00885814629999998
0.3683929454999997 0.3058819720999999 -0.010060470000000016
0.36839853229999964 0.305772583 -0.010273548100000002
0.36841677039999965 0.30563749240000027 -0.010354745799999981
0.36834723390000024 0.3055289076000003 -0.010927259999999994
0.3681927637000002 0.30555865959999995 -0.012893467999999991
0.3681987500999999 0.3054703643000001 -0.012918650899999995
0.3681577760999999 0.3053766563 -0.013325867299999988
0.3679875081999997 0.3053608168000004 -0.014938722999999987
0.3679504907000002 0.30531608740000005 -0.015125130600000009
0.3679678786 0.30523181300000024 -0.01504665120000001
0.3678731173000003 0.3051518121000001 -0.015913989300000014
0.36770198799999987 0.3051494894000002 -0.017144226699999987
0.36737754649999976 0.30543580430000006 -0.017507686000000022
0.36733690759999993 0.3054171159000001 -0.017245322199999996
0.36725397589999975 0.30535430340000014 -0.0178134311
0.3670384817000003 0.3053679747999998 -0.019539861499999978
0.36685365720000007 0.3055156815000002 -0.01936442869999999
0.36673941089999973 0.30554541790000034 -0.01953660539999999
0.3665627934 0.30549127170000023 -0.020680630700000008
0.3662531151999997 0.3057327153 -0.021345463499999995
0.36628708880000005 0.30571674179999997 -0.021040068699999998
0.3661884294000002 0.30570287689999986 -0.02099780509999999
0.3659554346 0.30565534859999977 -0.02185130939999999
0.36588994019999976 0.30566416279999986 -0.0224449075
0.3657949586 0.30569937560000016 -0.022786197300000005
0.3655944281000001 0.3056703998000003 -0.02354052670000001
0.3654904727999999 0.30567419640000004 -0.02412551839999999
0.3652730326000002 0.3059296293 -0.02416600870000002
0.36510738100000006 0.30600634599999976 -0.024351465500000002
0.3648535783 0.30600219169999976 -0.02513212849999999
0.36470991789999996 0.3060415261 -0.025838401700000013
0.36461920800000014 0.3061938448000001 -0.025897536199999988
0.36435873009999975 0.3062922136999999 -0.0262273992
0.3641339265000001 0.30637679930000017 -0.026787691099999983
0.3626943384999999 0.30789520140000004 -0.027165260200000013
0.3626430097000002 0.30782227760000014 -0.02737755
0.3625321886999999 0.3076959627 -0.028089302599999977
0.36249792670000014 0.3076167814999997 -0.028722009399999998
0.36244951709999995 0.307704706 -0.028772755500000025
0.3622567954 0.3077714935999998 -0.02903176160000001
0.3620728404000002 0.3078115168000002 -0.029531176399999998
0.36191939490000014 0.30792244889999987 -0.0297824253
0.36169234190000044 0.3080833384999999 -0.030003392699999992
0.3614358018999999 0.3081750686000002 -0.0305603163
0.3612421388000002 0.30825147620000015 -0.031058513600000004
0.3608151224 0.308628192 -0.03156962759999998
0.3606003020000004 0.30881886859999996 -0.03171874449999998
0.35999927399999976 0.3092859292000001 -0.03235286139999999
0.35971909869999985 0.3094253739999999 -0.03267377099999999
0.3595816105999998 0.3095305927000003 -0.032786961700000006
0.3590616096999999 0.31003968530000003 -0.033035464999999986
0.3579160790999998 0.3110838309999999 -0.033528606000000016
0.35787526299999994 0.3110181838999999 -0.03369721139999998
0.35776771669999974 0.3110959175999999 -0.03393429049999999
0.35758352989999986 0.3111882076999999 -0.034130147
0.3574110775999997 0.31123084489999986 -0.03441436619999999
0.3572710617000001 0.3112485790999999 -0.03483461939999999
0.3570718382 0.3113943817 -0.0352061565
0.35679985999999975 0.3116323308000002 -0.03537282289999999
0.35654940329999985 0.311786884 -0.03552233120000001
0.3563070046000001 0.3119042218999999 -0.035856686
0.3560184393000001 0.3121448428 -0.036208379999999984
0.35566222970000005 0.3124804546000002 -0.03638945540000002
0.3551013648999999 0.3129282907000004 -0.0366667074
0.35464289319999986 0.3132772666000001 -0.037090812599999995
0.35440380520000003 0.31347347029999995 -0.0372678025
0.3541216575999999 0.3137328886999997 -0.037346088
0.3535945387999999 0.3141459192 -0.03766019569999998
0.35314462950000003 0.31445884209999964 -0.03816288749999999
0.35291003089999995 0.31465978380000026 -0.03832053390000001
0.35262525190000016 0.31493629579999993 -0.0383527736
0.3520955134000001 0.3153654127000003 -0.0385651538
0.3516406986999998 0.31567596129999975 -0.03905090389999999
0.3509591002000003 0.3162899722000003 -0.03941742349999999
0.3507579524000004 0.3165270980999999 -0.03931031630000001
0.35012732720000006 0.31703080819999974 -0.0395712882
0.34961535700000024 0.31744252699999986 -0.03992216699999998
0.3491401189000003 0.3179142383000002 -0.03995797680000002
0.34874349849999975 0.31822112989999995 -0.04007972700000001
0.34838965610000017 0.3184566741000001 -0.04046175490000001
0.34791926119999994 0.31882869289999993 -0.040816736899999984
0.34743031050000006 0.31931577719999993 -0.040861361900000004
0.3470484961999998 0.3196715171000002 -0.040803177100000004
0.34684947320000026 0.3197406507 -0.04101533299999999
0.3465169201 0.3199669781000001 -0.041403787
0.34601659510000005 0.32046073210000037 -0.04152592399999999
0.34580624549999994 0.32067941570000036 -0.04142632399999999
0.34547181920000014 0.32087235849999995 -0.041643648899999997
0.3450000085 0.3212648559 -0.04199734220000001
0.34474729150000005 0.3215080681 -0.0420614936
0.3436128479999998 0.3225243566999998 -0.042105953
0.34353169459999977 0.32255844340000017 -0.04220161920000001
0.34323428999999983 0.3227999427000001 -0.042517975099999994
0.3428976933000003 0.3230952068999997 -0.0426561907
0.3426416112999999 0.3232965370999996 -0.04263368810000001
0.34237807119999975 0.3234894220000002 -0.04276931040000001
0.3419723240999999 0.3238328782000002 -0.043083081800000006
0.3395396666999999 0.3260475975999997 -0.04332343450000001
0.33957000670000026 0.32600675720000005 -0.04319956059999999
0.3394786491999997 0.32607192470000035 -0.04331622439999999
0.33928063500000016 0.32622529160000013 -0.04348651889999999
0.3390960656999997 0.32640364899999996 -0.0434681826
0.3388208142 0.32660628959999993 -0.04363415020000001
0.33846530799999996 0.32687093720000027 -0.043910970199999996
0.33810436860000026 0.3271777386000001 -0.0440792139
0.33777700290000023 0.3274858397 -0.044068678599999994
0.3373804702000003 0.3278082230999999 -0.04417516240000001
0.33693163160000017 0.32815456649999986 -0.04443809709999999
0.33649812840000015 0.32853518810000004 -0.04456140680000001
0.3361103698000001 0.3289292521 -0.04448649219999999
0.33564348330000016 0.3293004557999999 -0.04463103280000001
0.33516230229999966 0.3296881813999999 -0.044833313700000016
0.3347417251000002 0.33009356180000005 -0.044815384999999985
0.3342686345999999 0.33050814839999987 -0.04487997219999999
0.3337170549999997 0.3309295831000001 -0.0451354407
0.3332132358000002 0.33134780239999984 -0.04531143650000001
0.3327506962000002 0.33179308229999993 -0.045298451
0.3322335485000001 0.3322698839 -0.0453160772
0.3316631932999998 0.3327199810999999 -0.045480262399999985
0.3307495670999998 0.3334504033000001 -0.0457439543
0.33037247429999983 0.3338405619999998 -0.04566347780000002
0.329881184 0.3342877807 -0.04569762159999999
0.3289496401000003 0.3350449811999998 -0.0458461746
0.3286061965 0.33535913630000014 -0.045802878000000005
0.3277636018000001 0.3360875401000003 -0.0459079008
0.3273208235 0.3364911186999997 -0.0459797374
0.3268653337999998 0.33688002169999987 -0.0459961713
0.3261719769 0.3374324794999999 -0.0460321875
0.3257760542999999 0.3378132501000004 -0.0460838095
0.32483658790000014 0.33861298520000016 -0.04618713099999999
0.3244639138000003 0.3389404348 -0.04614934979999999
0.3238212897000001 0.3394651674999998 -0.046145787800000004
0.32340268419999996 0.33985678340000014 -0.04624253910000001
0.3224459331 0.34065042320000005 -0.0463540637
0.3220857363999996 0.3409760896999998 -0.04627650140000002
0.3214059993 0.3415268016999997 -0.0462757357
0.31914699859999995 0.3434147854999998 -0.0463600971
0.3178265754999998 0.3445456560000002 -0.046287375099999986
0.3175546401 0.3447948103999998 -0.04614200600000001
0.31734526799999996 0.3449574310000001 -0.046183870299999985
0.3171452255 0.34517720149999986 -0.0462739727
0.3168149723 0.3454727676 -0.04630552589999999
0.31604439750000024 0.34608720749999966 -0.046248686900000016
0.3158017043000001 0.34630824579999997 -0.046249091699999995
0.31536883819999995 0.34669237740000014 -0.0463973843
0.31485139649999994 0.34714147910000026 -0.0464707489
0.3143989681999999 0.3475186211999999 -0.04636237920000001
0.3139148989999998 0.34792785810000026 -0.046367031
0.3133576965999998 0.34839864229999984 -0.046437698599999994
0.31279652790000023 0.34888719629999976 -0.04639969100000001
0.3122360881999997 0.3493568614 -0.04634287710000001
0.31164327489999977 0.3498305113 -0.046392438999999994
0.3110016738999999 0.3503651728999997 -0.0464688372
0.3098284040000001 0.35132492520000014 -0.04637488590000001
0.3093181305999999 0.35177457079999996 -0.04626777250000001
0.30827354419999997 0.3525796377999999 -0.04629662380000002
0.30730523079999994 0.35337439920000024 -0.046277279000000004
0.30641577689999977 0.3541141737000002 -0.046151843200000014
0.3056141623000004 0.35477022420000015 -0.0460234789
0.3048116974999999 0.35541742370000007 -0.04600684149999999
0.3039762289999999 0.35610256510000005 -0.045965631600000015
0.30316743459999973 0.3567733952000003 -0.045817318499999996
0.3024326127000001 0.3573715099000001 -0.04564821600000002
0.30169318789999977 0.35795454699999985 -0.045689073600000005
0.3005543031000002 0.3588381192000001 -0.045732134699999996
0.29983749300000007 0.35945016490000015 -0.04554752640000001
0.29918143259999974 0.3599923212 -0.04532090669999998
0.29844530729999974 0.3605615180999999 -0.04534928819999999
0.2973745967000001 0.36139905500000014 -0.04527914779999999
0.2967555811999998 0.36194629899999997 -0.04493212089999998
0.2960501136999998 0.36249497559999977 -0.0449004207
0.2949624497000003 0.3632815881 -0.04511334030000001
0.2941711225999999 0.3639207822999997 -0.04507669730000001
0.29347559430000025 0.3645212657000001 -0.0446553195
0.29283440679999995 0.3650370696999996 -0.044431626099999996
0.29204402530000007 0.3656120233000002 -0.044591883900000004
0.2892776869999998 0.3676544475000001 -0.04425195520000001
0.28919345090000004 0.3678122024999997 -0.043997235100000004
0.2890246807999999 0.36799782830000005 -0.043769537900000016
0.2886648997000001 0.3682844518999997 -0.043882828
0.28818855339999994 0.36867885219999996 -0.043868325
0.28768523970000004 0.3690955682000001 -0.0436999993
0.2871728030999998 0.36948879990000005 -0.043570489899999995
0.28656961979999984 0.3699679911000002 -0.0435579111
0.28586384070000026 0.37054570100000017 -0.04343890410000001
0.28256396389999994 0.3728877624 -0.04272760010000001
0.2823294306000004 0.37308483010000026 -0.042664099999999996
0.28194215349999974 0.37342477769999993 -0.042656331000000006
0.2814258349000003 0.3738517616999997 -0.04253460510000001
0.2809293572999998 0.3742456099 -0.0422845421
0.2803480599000001 0.3747084899999997 -0.042169538300000003
0.27959074100000025 0.37528214820000017 -0.042192458099999997
0.2787860722000004 0.37589037959999994 -0.04205529570000001
0.2763634218000002 0.37758850619999995 -0.04116028130000002
0.27591642689999984 0.3779444594000001 -0.0411677825
0.2753300258999998 0.37839589760000036 -0.04115630070000001
0.27470661110000005 0.37888075620000006 -0.04094087079999999
0.27408898430000006 0.3793585884999997 -0.04067114290000001
0.27337144339999986 0.3798746817999996 -0.040613396999999996
0.2725838194999999 0.3804626501999997 -0.040501178799999996
0.2704725456000001 0.3819095337 -0.0399343811
0.26794309660000026 0.3835845564999998 -0.039431488099999995
